//X Y Z Nx Ny Nz
600
166.318450927734 -154.697158813477 -153.436798095703 0.992394 0.123096 0.001089
175.051757812500 -225.801437377930 -139.170013427734 0.992394 0.123096 0.001089
177.226043701172 -243.503890991211 -140.364013671875 0.992394 0.123096 0.001089
188.447387695313 -334.865173339844 -144.201950073242 0.992394 0.123096 0.001089
190.808166503906 -354.086029052734 -150.604583740234 0.992394 0.123096 0.001089
185.692214965820 -312.433288574219 -138.515411376953 0.992394 0.123096 0.001089
193.508956909180 -376.075103759766 -147.554962158203 0.992394 0.123096 0.001089
185.599075317383 -311.674926757813 -141.034500122070 0.992394 0.123096 0.001089
180.887832641602 -273.317260742188 -140.794204711914 0.992394 0.123096 0.001089
190.802032470703 -354.036132812500 -150.161560058594 0.992394 0.123096 0.001089
188.403182983398 -334.505157470703 -147.566726684570 0.992394 0.123096 0.001089
189.643264770508 -344.601776123047 -138.038299560547 0.992394 0.123096 0.001089
188.892822265625 -338.491821289063 -142.395645141602 0.992394 0.123096 0.001089
191.476470947266 -359.527130126953 -141.698913574219 0.992394 0.123096 0.001089
184.230209350586 -300.529998779297 -141.857772827148 0.992394 0.123096 0.001089
194.095352172852 -380.849456787109 -151.192657470703 0.992394 0.123096 0.001089
191.952117919922 -363.399841308594 -142.914413452148 0.992394 0.123096 0.001089
189.880920410156 -346.536621093750 -151.804244995117 0.992394 0.123096 0.001089
197.032684326172 -404.764343261719 -146.166488647461 0.992394 0.123096 0.001089
198.014831542969 -412.760589599609 -137.577270507813 0.992394 0.123096 0.001089
192.834899902344 -370.587127685547 -135.924896240234 0.992394 0.123096 0.001089
198.325500488281 -415.290191650391 -153.284118652344 0.992394 0.123096 0.001089
198.463592529297 -416.414459228516 -156.512725830078 0.992394 0.123096 0.001089
195.412841796875 -391.576080322266 -152.417922973633 0.992394 0.123096 0.001089
198.880264282227 -419.806884765625 -153.153610229492 0.992394 0.123096 0.001089
197.013442993164 -404.607666015625 -137.600402832031 0.992394 0.123096 0.001089
193.900817871094 -379.265563964844 -138.367156982422 0.992394 0.123096 0.001089
193.981811523438 -379.924896240234 -140.912902832031 0.992394 0.123096 0.001089
156.237899780273 -2.067433357239 -140.749511718750 0.999999 0.000978 0.000978
156.237899780273 -6.602930068970 -135.620361328125 0.999999 0.000978 0.000978
156.237899780273 -11.346788406372 -141.065902709961 0.999999 0.000978 0.000978
156.237899780273 12.201637268066 -161.936462402344 0.999999 0.000978 0.000978
156.237899780273 5.768388748169 -146.277160644531 0.999999 0.000978 0.000978
156.237899780273 -12.636427879333 -158.665206909180 0.999999 0.000978 0.000978
156.237899780273 -14.632999420166 -148.257720947266 0.999999 0.000978 0.000978
156.237899780273 -33.977455139160 -161.741210937500 0.999999 0.000978 0.000978
156.237899780273 -21.860774993896 -144.719985961914 0.999999 0.000978 0.000978
156.237899780273 -31.066013336182 -145.472671508789 0.999999 0.000978 0.000978
156.237899780273 -63.856208801270 -163.218994140625 0.999999 0.000978 0.000978
156.237899780273 -33.902442932129 -152.563095092773 0.999999 0.000978 0.000978
156.237899780273 -21.033020019531 -144.708740234375 0.999999 0.000978 0.000978
156.237899780273 -35.406799316406 -160.803237915039 0.999999 0.000978 0.000978
156.237899780273 -41.749244689941 -156.563217163086 0.999999 0.000978 0.000978
156.237899780273 -17.481487274170 -147.842895507813 0.999999 0.000978 0.000978
156.237899780273 -54.186656951904 -151.832489013672 0.999999 0.000978 0.000978
156.237899780273 -45.846759796143 -143.655303955078 0.999999 0.000978 0.000978
156.237899780273 -45.878551483154 -135.060317993164 0.999999 0.000978 0.000978
156.237899780273 -49.488235473633 -136.607986450195 0.999999 0.000978 0.000978
156.237899780273 -61.354774475098 -138.698272705078 0.999999 0.000978 0.000978
156.237899780273 -61.501094818115 -154.098236083984 0.999999 0.000978 0.000978
156.237899780273 -64.765869140625 -137.631408691406 0.999999 0.000978 0.000978
156.677352905273 15.768689155579 -154.261672973633 0.992091 -0.125512 0.001091
157.577468872070 22.911979675293 -144.814392089844 0.992091 -0.125512 0.001091
158.384109497070 29.313476562500 -149.579452514648 0.992091 -0.125512 0.001091
157.790039062500 24.598945617676 -153.002685546875 0.992091 -0.125512 0.001091
157.733489990234 24.150127410889 -157.963851928711 0.992091 -0.125512 0.001091
156.783615112305 16.612056732178 -135.892745971680 0.992091 -0.125512 0.001091
157.438629150391 21.810123443604 -155.334243774414 0.992091 -0.125512 0.001091
214.252944946289 472.686584472656 -147.537704467773 0.992091 -0.125512 0.001091
212.639648437500 459.883544921875 -142.583648681641 0.992091 -0.125512 0.001091
211.992324829102 454.746459960938 -138.292694091797 0.992091 -0.125512 0.001091
213.225769042969 464.535003662109 -142.883911132813 0.992091 -0.125512 0.001091
211.015655517578 446.995727539063 -138.257644653320 0.992091 -0.125512 0.001091
211.574584960938 451.431243896484 -142.980590820313 0.992091 -0.125512 0.001091
204.223312377930 393.091735839844 -142.151306152344 0.992091 -0.125512 0.001091
208.510971069336 427.118499755859 -153.143905639648 0.992091 -0.125512 0.001091
207.108963012695 415.992248535156 -137.952713012695 0.992091 -0.125512 0.001091
209.233215332031 432.850250244141 -150.869735717773 0.992091 -0.125512 0.001091
207.725280761719 420.883300781250 -140.124725341797 0.992091 -0.125512 0.001091
209.218658447266 432.734649658203 -146.864379882813 0.992091 -0.125512 0.001091
203.329162597656 385.995849609375 -136.584259033203 0.992091 -0.125512 0.001091
205.457763671875 402.888336181641 -147.316558837891 0.992091 -0.125512 0.001091
203.048019409180 383.764617919922 -142.958282470703 0.992091 -0.125512 0.001091
210.281158447266 441.166656494141 -155.026763916016 0.992091 -0.125512 0.001091
206.703384399414 412.773651123047 -135.170486450195 0.992091 -0.125512 0.001091
192.619720458984 301.006072998047 -135.278244018555 0.992091 -0.125512 0.001091
198.000610351563 343.708679199219 -141.716812133789 0.992091 -0.125512 0.001091
197.436157226563 339.229187011719 -140.183929443359 0.992091 -0.125512 0.001091
196.813323974609 334.286468505859 -137.565917968750 0.992091 -0.125512 0.001091
198.976623535156 351.454254150391 -145.007385253906 0.992091 -0.125512 0.001091
207.871582031250 422.044342041016 -154.066406250000 0.992091 -0.125512 0.001091
205.051757812500 399.666351318359 -151.670089721680 0.992091 -0.125512 0.001091
199.120056152344 352.592498779297 -144.562316894531 0.992091 -0.125512 0.001091
200.557769775391 364.002197265625 -147.261383056641 0.992091 -0.125512 0.001091
201.568725585938 372.025054931641 -149.000411987305 0.992091 -0.125512 0.001091
180.919876098633 208.156494140625 -162.478729248047 0.992091 -0.125512 0.001091
200.466217041016 363.275604248047 -163.784164428711 0.992091 -0.125512 0.001091
186.963745117188 256.120605468750 -160.409683227539 0.992091 -0.125512 0.001091
163.739501953125 71.813697814941 -162.999938964844 0.992091 -0.125512 0.001091
190.362640380859 283.094085693359 -138.391143798828 0.992091 -0.125512 0.001091
173.639770507813 150.381942749023 -162.080245971680 0.992091 -0.125512 0.001091
180.829757690430 207.441467285156 -148.433410644531 0.992091 -0.125512 0.001091
192.046752929688 296.459075927734 -144.312469482422 0.992091 -0.125512 0.001091
195.894378662109 326.993713378906 -143.935775756836 0.992091 -0.125512 0.001091
185.285583496094 242.802642822266 -146.317871093750 0.992091 -0.125512 0.001091
186.293701171875 250.803100585938 -151.739028930664 0.992091 -0.125512 0.001091
185.666687011719 245.827148437500 -147.424758911133 0.992091 -0.125512 0.001091
179.882614135742 199.924850463867 -160.971008300781 0.992091 -0.125512 0.001091
185.429321289063 243.943359375000 -145.084320068359 0.992091 -0.125512 0.001091
196.465774536133 331.528320312500 -161.327331542969 0.992091 -0.125512 0.001091
166.403076171875 92.951759338379 -158.224517822266 0.992091 -0.125512 0.001091
210.011993408203 439.030670166016 -163.772644042969 0.992091 -0.125512 0.001091
177.806732177734 183.450790405273 -148.736511230469 0.992091 -0.125512 0.001091
190.298461914063 282.584716796875 -149.547882080078 0.992091 -0.125512 0.001091
208.126220703125 424.065277099609 -163.869781494141 0.992091 -0.125512 0.001091
182.260330200195 218.794357299805 -158.681930541992 0.992091 -0.125512 0.001091
197.815933227539 342.243164062500 -158.959899902344 0.992091 -0.125512 0.001091
195.637329101563 324.953674316406 -159.604995727539 0.992091 -0.125512 0.001091
181.763671875000 214.852874755859 -160.125885009766 0.992091 -0.125512 0.001091
197.383880615234 338.814361572266 -164.179565429688 0.992091 -0.125512 0.001091
197.001327514648 335.778503417969 -150.329132080078 0.992091 -0.125512 0.001091
192.412628173828 299.362701416016 -147.729171752930 0.992091 -0.125512 0.001091
190.229278564453 282.035736083984 -158.641311645508 0.992091 -0.125512 0.001091
183.090805053711 225.385070800781 -158.314163208008 0.992091 -0.125512 0.001091
172.841842651367 144.049560546875 -156.526947021484 0.992091 -0.125512 0.001091
192.296875000000 298.444030761719 -149.970504760742 0.992091 -0.125512 0.001091
204.247131347656 393.280883789063 -164.380401611328 0.992091 -0.125512 0.001091
192.895263671875 303.192779541016 -140.883941650391 0.992091 -0.125512 0.001091
180.434051513672 204.301025390625 -162.717529296875 0.992091 -0.125512 0.001091
164.483764648438 77.720115661621 -162.929183959961 0.992091 -0.125512 0.001091
188.495483398438 268.276306152344 -152.637893676758 0.992091 -0.125512 0.001091
188.169357299805 265.688171386719 -162.910064697266 0.992091 -0.125512 0.001091
186.468795776367 252.192565917969 -153.477752685547 0.992091 -0.125512 0.001091
173.058914184570 145.772216796875 -154.635742187500 0.992091 -0.125512 0.001091
164.469955444336 77.610542297363 -157.897186279297 0.992091 -0.125512 0.001091
183.689926147461 230.139602661133 -160.864440917969 0.992091 -0.125512 0.001091
182.204910278320 218.354583740234 -157.173294067383 0.992091 -0.125512 0.001091
189.443664550781 275.800964355469 -152.633361816406 0.992091 -0.125512 0.001091
199.021636962891 351.811462402344 -154.613418579102 0.992091 -0.125512 0.001091
189.711654663086 277.927825927734 -148.997177124023 0.992091 -0.125512 0.001091
184.697280883789 238.133804321289 -164.957565307617 0.992091 -0.125512 0.001091
192.562133789063 300.549133300781 -146.179367065430 0.992091 -0.125512 0.001091
173.933944702148 152.716445922852 -162.288024902344 0.992091 -0.125512 0.001091
198.606872558594 348.519897460938 -150.677413940430 0.992091 -0.125512 0.001091
201.383941650391 370.558685302734 -157.132141113281 0.992091 -0.125512 0.001091
201.910690307617 374.738922119141 -152.050781250000 0.992091 -0.125512 0.001091
187.627655029297 261.389312744141 -139.386459350586 0.992091 -0.125512 0.001091
188.115005493164 265.256835937500 -145.893295288086 0.992091 -0.125512 0.001091
211.861648559570 453.709411621094 -162.615203857422 0.992091 -0.125512 0.001091
172.006469726563 137.420104980469 -152.356658935547 0.992091 -0.125512 0.001091
186.486770629883 252.335311889648 -150.330429077148 0.992091 -0.125512 0.001091
183.930923461914 232.052200317383 -140.355239868164 0.992091 -0.125512 0.001091
184.871856689453 239.519409179688 -144.882476806641 0.992091 -0.125512 0.001091
190.615036010742 285.096984863281 -152.799713134766 0.992091 -0.125512 0.001091
184.146041870117 233.759307861328 -162.253005981445 0.992091 -0.125512 0.001091
164.010162353516 73.961715698242 -162.818984985352 0.992091 -0.125512 0.001091
194.363708496094 314.846405029297 -149.789001464844 0.992091 -0.125512 0.001091
200.889572143555 366.635437011719 -160.204574584961 0.992091 -0.125512 0.001091
207.922424316406 422.447845458984 -163.756347656250 0.992091 -0.125512 0.001091
168.980880737305 113.409072875977 -147.738952636719 0.992091 -0.125512 0.001091
168.421768188477 108.971954345703 -149.504241943359 0.992091 -0.125512 0.001091
169.790985107422 119.838081359863 -151.493118286133 0.992091 -0.125512 0.001091
173.080322265625 145.942123413086 -148.006286621094 0.992091 -0.125512 0.001091
171.592803955078 134.137191772461 -140.699798583984 0.992091 -0.125512 0.001091
169.221313476563 115.317207336426 -145.791397094727 0.992091 -0.125512 0.001091
170.528320312500 125.689567565918 -147.982299804688 0.992091 -0.125512 0.001091
163.364227294922 68.835578918457 -153.956970214844 0.992091 -0.125512 0.001091
179.160980224609 194.198059082031 -143.183349609375 0.992091 -0.125512 0.001091
178.165328979492 186.296554565430 -136.763076782227 0.992091 -0.125512 0.001091
164.528381347656 78.074180603027 -157.081848144531 0.992091 -0.125512 0.001091
166.218750000000 91.488861083984 -149.568344116211 0.992091 -0.125512 0.001091
174.617477416992 158.140914916992 -147.655838012695 0.992091 -0.125512 0.001091
174.935958862305 160.668395996094 -141.459533691406 0.992091 -0.125512 0.001091
177.024841308594 177.245681762695 -138.474456787109 0.992091 -0.125512 0.001091
173.721679687500 151.031982421875 -139.665466308594 0.992091 -0.125512 0.001091
163.941528320313 73.417022705078 -146.613052368164 0.992091 -0.125512 0.001091
159.073287963867 34.782817840576 -154.077209472656 0.992091 -0.125512 0.001091
164.379379272461 76.891830444336 -150.478042602539 0.992091 -0.125512 0.001091
168.118591308594 106.565971374512 -136.513580322266 0.992091 -0.125512 0.001091
157.794311523438 24.632787704468 -160.077713012695 0.992091 -0.125512 0.001091
158.256683349609 28.302249908447 -159.378387451172 0.992091 -0.125512 0.001091
168.845443725586 112.334213256836 -137.757339477539 0.992091 -0.125512 0.001091
166.675094604492 95.110397338867 -139.006698608398 0.992091 -0.125512 0.001091
161.564987182617 54.556747436523 -151.352249145508 0.992091 -0.125512 0.001091
166.753707885742 95.734252929688 -142.563690185547 0.992091 -0.125512 0.001091
160.175476074219 43.529666900635 -149.004364013672 0.992091 -0.125512 0.001091
168.438369750977 109.103668212891 -136.249221801758 0.992091 -0.125512 0.001091
165.106994628906 82.666038513184 -148.005767822266 0.992091 -0.125512 0.001091
207.137985229492 474.697509765625 -149.434524536133 0.140185 0.990125 0.001104
203.137893676758 475.259674072266 -136.631958007813 0.140185 0.990125 0.001104
211.093032836914 474.141632080078 -157.614013671875 0.140185 0.990125 0.001104
196.357788085938 476.212585449219 -152.449478149414 0.140185 0.990125 0.001104
205.202972412109 474.969451904297 -164.260726928711 0.140185 0.990125 0.001104
202.832199096680 475.302673339844 -144.428115844727 0.140185 0.990125 0.001104
197.696472167969 476.024444580078 -140.286453247070 0.140185 0.990125 0.001104
195.094146728516 476.390197753906 -142.041976928711 0.140185 0.990125 0.001104
185.426696777344 477.748840332031 -158.064056396484 0.140185 0.990125 0.001104
122.825126647949 37.805625915527 -136.492538452148 -0.990125 0.140185 0.001104
120.141349792480 18.709621429443 -142.969161987305 -0.990125 0.140185 0.001104
123.442558288574 42.198909759521 -140.593750000000 -0.990125 0.140185 0.001104
123.243423461914 40.781955718994 -144.914978027344 -0.990125 0.140185 0.001104
121.017440795898 24.943283081055 -139.759887695313 -0.990125 0.140185 0.001104
122.411483764648 34.862442016602 -142.893417358398 -0.990125 0.140185 0.001104
119.759017944336 15.989186286926 -153.490982055664 -0.990125 0.140185 0.001104
120.189750671387 19.053981781006 -140.318695068359 -0.990125 0.140185 0.001104
128.049011230469 74.975357055664 -135.378387451172 -0.990125 0.140185 0.001104
127.196022033691 68.906059265137 -139.863113403320 -0.990125 0.140185 0.001104
124.243721008301 47.899429321289 -150.007995605469 -0.990125 0.140185 0.001104
127.486549377441 70.973419189453 -149.896301269531 -0.990125 0.140185 0.001104
119.595642089844 14.826704025269 -164.441314697266 -0.990125 0.140185 0.001104
129.276962280273 83.712860107422 -153.537338256836 -0.990125 0.140185 0.001104
135.385131835938 127.174728393555 -145.252105712891 -0.990125 0.140185 0.001104
129.768142700195 87.207817077637 -139.671798706055 -0.990125 0.140185 0.001104
127.653038024902 72.158065795898 -151.773284912109 -0.990125 0.140185 0.001104
127.927085876465 74.108047485352 -149.980255126953 -0.990125 0.140185 0.001104
136.036361694336 131.808547973633 -138.206054687500 -0.990125 0.140185 0.001104
130.075653076172 89.395782470703 -136.468307495117 -0.990125 0.140185 0.001104
133.210311889648 111.700088500977 -146.970947265625 -0.990125 0.140185 0.001104
136.268646240234 133.461318969727 -144.701614379883 -0.990125 0.140185 0.001104
124.837638854980 52.125442504883 -157.972167968750 -0.990125 0.140185 0.001104
131.774475097656 101.483589172363 -144.894805908203 -0.990125 0.140185 0.001104
127.010826110840 67.588516235352 -144.001281738281 -0.990125 0.140185 0.001104
139.952453613281 159.673034667969 -140.985794067383 -0.990125 0.140185 0.001104
130.652603149414 93.501091003418 -138.717254638672 -0.990125 0.140185 0.001104
138.079162597656 146.343841552734 -143.759033203125 -0.990125 0.140185 0.001104
143.893112182617 187.712203979492 -145.027038574219 -0.990125 0.140185 0.001104
149.349777221680 226.538345336914 -138.652786254883 -0.990125 0.140185 0.001104
126.877555847168 66.640220642090 -158.084991455078 -0.990125 0.140185 0.001104
141.464492797852 170.431671142578 -146.473007202148 -0.990125 0.140185 0.001104
151.593887329102 242.506042480469 -136.163375854492 -0.990125 0.140185 0.001104
141.820785522461 172.966720581055 -146.198532104492 -0.990125 0.140185 0.001104
141.267822265625 169.032257080078 -146.293762207031 -0.990125 0.140185 0.001104
141.757904052734 172.519393920898 -146.259963989258 -0.990125 0.140185 0.001104
149.126388549805 224.948806762695 -141.150024414063 -0.990125 0.140185 0.001104
142.562545776367 178.244720458984 -143.073791503906 -0.990125 0.140185 0.001104
138.637390136719 150.315780639648 -148.595504760742 -0.990125 0.140185 0.001104
169.786926269531 371.956207275391 -150.043075561523 -0.990125 0.140185 0.001104
148.540802001953 220.782150268555 -142.449737548828 -0.990125 0.140185 0.001104
160.151367187500 303.395629882813 -139.243270874023 -0.990125 0.140185 0.001104
163.775558471680 329.183105468750 -159.560699462891 -0.990125 0.140185 0.001104
167.818618774414 357.950927734375 -148.274032592773 -0.990125 0.140185 0.001104
156.612243652344 278.213562011719 -153.903350830078 -0.990125 0.140185 0.001104
159.982574462891 302.194641113281 -163.086547851563 -0.990125 0.140185 0.001104
164.633773803711 335.289642333984 -148.827835083008 -0.990125 0.140185 0.001104
154.198883056641 261.041564941406 -155.884628295898 -0.990125 0.140185 0.001104
171.338623046875 382.997192382813 -162.333999633789 -0.990125 0.140185 0.001104
180.320983886719 446.909912109375 -164.494705200195 -0.990125 0.140185 0.001104
154.368408203125 262.247741699219 -160.740325927734 -0.990125 0.140185 0.001104
156.383605957031 276.586608886719 -157.296478271484 -0.990125 0.140185 0.001104
147.556121826172 213.775787353516 -147.120681762695 -0.990125 0.140185 0.001104
177.703125000000 428.282897949219 -160.188919067383 -0.990125 0.140185 0.001104
172.190521240234 389.058593750000 -157.402877807617 -0.990125 0.140185 0.001104
148.396423339844 219.754913330078 -150.719390869141 -0.990125 0.140185 0.001104
158.455062866211 291.325775146484 -149.667510986328 -0.990125 0.140185 0.001104
164.581954956055 334.920989990234 -153.311294555664 -0.990125 0.140185 0.001104
151.357437133789 240.823562622070 -157.829208374023 -0.990125 0.140185 0.001104
154.994842529297 266.705169677734 -151.714935302734 -0.990125 0.140185 0.001104
181.955215454102 458.538085937500 -162.363113403320 -0.990125 0.140185 0.001104
149.029510498047 224.259506225586 -155.489898681641 -0.990125 0.140185 0.001104
155.459503173828 270.011230468750 -145.121078491211 -0.990125 0.140185 0.001104
152.199371337891 246.814224243164 -161.572891235352 -0.990125 0.140185 0.001104
172.302993774414 389.859039306641 -152.318069458008 -0.990125 0.140185 0.001104
139.534729003906 156.700668334961 -155.985778808594 -0.990125 0.140185 0.001104
149.222412109375 225.632034301758 -154.373107910156 -0.990125 0.140185 0.001104
141.419860839844 170.114044189453 -148.752075195313 -0.990125 0.140185 0.001104
140.266540527344 161.907821655273 -164.940597534180 -0.990125 0.140185 0.001104
169.245223999023 368.101684570313 -164.695526123047 -0.990125 0.140185 0.001104
152.741012573242 250.668212890625 -157.390090942383 -0.990125 0.140185 0.001104
153.124343872070 253.395782470703 -162.697998046875 -0.990125 0.140185 0.001104
141.597534179688 171.378204345703 -162.864639282227 -0.990125 0.140185 0.001104
142.638183593750 178.782882690430 -158.330917358398 -0.990125 0.140185 0.001104
138.170883178711 146.996459960938 -156.742782592773 -0.990125 0.140185 0.001104
153.880447387695 258.775695800781 -142.119979858398 -0.990125 0.140185 0.001104
162.901565551758 322.964355468750 -160.737457275391 -0.990125 0.140185 0.001104
182.424011230469 461.873687744141 -163.860229492188 -0.990125 0.140185 0.001104
154.075622558594 260.164459228516 -144.141143798828 -0.990125 0.140185 0.001104
152.719207763672 250.513000488281 -154.874862670898 -0.990125 0.140185 0.001104
164.826156616211 336.658416748047 -155.464645385742 -0.990125 0.140185 0.001104
135.198959350586 125.850112915039 -163.996490478516 -0.990125 0.140185 0.001104
160.388351440430 305.081878662109 -145.944671630859 -0.990125 0.140185 0.001104
145.177795410156 196.853195190430 -153.725814819336 -0.990125 0.140185 0.001104
136.144134521484 132.575424194336 -161.645523071289 -0.990125 0.140185 0.001104
175.960357666016 415.882415771484 -160.037246704102 -0.990125 0.140185 0.001104
176.096649169922 416.852172851563 -156.134063720703 -0.990125 0.140185 0.001104
164.796127319336 336.444854736328 -159.444305419922 -0.990125 0.140185 0.001104
165.164062500000 339.062835693359 -152.282775878906 -0.990125 0.140185 0.001104
159.516967773438 298.881591796875 -138.887786865234 -0.990125 0.140185 0.001104
149.192947387695 225.422470092773 -161.210494995117 -0.990125 0.140185 0.001104
175.358749389648 411.601806640625 -159.594421386719 -0.990125 0.140185 0.001104
165.198776245117 339.309783935547 -152.887100219727 -0.990125 0.140185 0.001104
137.586380004883 142.837463378906 -163.369827270508 -0.990125 0.140185 0.001104
137.561996459961 142.663970947266 -152.591140747070 -0.990125 0.140185 0.001104
160.715545654297 307.409973144531 -157.918273925781 -0.990125 0.140185 0.001104
144.516586303711 192.148483276367 -157.381042480469 -0.990125 0.140185 0.001104
140.279785156250 162.002059936523 -164.618881225586 -0.990125 0.140185 0.001104
131.471649169922 99.328880310059 -163.903518676758 -0.990125 0.140185 0.001104
146.147781372070 203.755020141602 -161.060775756836 -0.990125 0.140185 0.001104
147.188842773438 211.162490844727 -162.938507080078 -0.990125 0.140185 0.001104
160.532501220703 306.107513427734 -146.929656982422 -0.990125 0.140185 0.001104
158.220428466797 289.656250000000 -149.127166748047 -0.990125 0.140185 0.001104
150.385986328125 233.911315917969 -154.892883300781 -0.990125 0.140185 0.001104
174.444976806641 405.099975585938 -152.862136840820 -0.990125 0.140185 0.001104
168.726531982422 364.410980224609 -136.072860717773 -0.990125 0.140185 0.001104
170.557922363281 377.442077636719 -141.988311767578 -0.990125 0.140185 0.001104
163.836563110352 329.617126464844 -140.873321533203 -0.990125 0.140185 0.001104
165.239929199219 339.602630615234 -142.462997436523 -0.990125 0.140185 0.001104
181.801834106445 457.446746826172 -160.605392456055 -0.990125 0.140185 0.001104
166.010543823242 345.085906982422 -139.303131103516 -0.990125 0.140185 0.001104
161.981094360352 316.414855957031 -135.638977050781 -0.990125 0.140185 0.001104
176.049636840820 416.517639160156 -152.200073242188 -0.990125 0.140185 0.001104
169.281112670898 368.357177734375 -145.596069335938 -0.990125 0.140185 0.001104
169.535095214844 370.164306640625 -135.855987548828 -0.990125 0.140185 0.001104
172.870437622070 393.896545410156 -143.789794921875 -0.990125 0.140185 0.001104
166.428207397461 348.057617187500 -139.668197631836 -0.990125 0.140185 0.001104
174.910934448242 408.415374755859 -137.641250610352 -0.990125 0.140185 0.001104
166.910781860352 351.491394042969 -135.207351684570 -0.990125 0.140185 0.001104
163.311447143555 325.880737304688 -135.809967041016 -0.990125 0.140185 0.001104
167.241165161133 353.842224121094 -143.367813110352 -0.990125 0.140185 0.001104
176.532302856445 419.952026367188 -145.351562500000 -0.990125 0.140185 0.001104
176.287658691406 418.211273193359 -138.324508666992 -0.990125 0.140185 0.001104
178.585876464844 434.563903808594 -144.933868408203 -0.990125 0.140185 0.001104
177.447738647461 426.465759277344 -141.306106567383 -0.990125 0.140185 0.001104
176.938964843750 422.845581054688 -135.699630737305 -0.990125 0.140185 0.001104
179.713928222656 442.590454101563 -138.933319091797 -0.990125 0.140185 0.001104
180.115829467773 445.450134277344 -139.542816162109 -0.990125 0.140185 0.001104
184.114959716797 473.905456542969 -136.996826171875 -0.990125 0.140185 0.001104
182.228637695313 460.483581542969 -148.847915649414 -0.990125 0.140185 0.001104
184.318847656250 475.356140136719 -155.966842651367 -0.990125 0.140185 0.001104
183.934555053711 472.621795654297 -158.568344116211 -0.990125 0.140185 0.001104
181.647262573242 456.346893310547 -136.335067749023 -0.990125 0.140185 0.001104
119.237899780273 -66.598701477051 -135.857650756836 -0.999999 0.000978 0.000978
119.237899780273 -19.769817352295 -136.829208374023 -0.999999 0.000978 0.000978
119.237899780273 -0.495760917664 -135.077880859375 -0.999999 0.000978 0.000978
119.237899780273 0.868342876434 -140.070800781250 -0.999999 0.000978 0.000978
119.237899780273 -1.155791282654 -149.928390502930 -0.999999 0.000978 0.000978
119.237899780273 10.896066665649 -155.006774902344 -0.999999 0.000978 0.000978
119.237899780273 6.846110820770 -153.164215087891 -0.999999 0.000978 0.000978
119.237899780273 0.186517506838 -158.222000122070 -0.999999 0.000978 0.000978
119.237899780273 -27.932453155518 -161.491455078125 -0.999999 0.000978 0.000978
119.237899780273 -73.578796386719 -162.619613647461 -0.999999 0.000978 0.000978
119.237899780273 -12.905822753906 -163.897811889648 -0.999999 0.000978 0.000978
119.237899780273 -78.207740783691 -158.777557373047 -0.999999 0.000978 0.000978
119.237899780273 -63.710586547852 -152.856933593750 -0.999999 0.000978 0.000978
119.237899780273 -55.711608886719 -144.275192260742 -0.999999 0.000978 0.000978
119.237899780273 -87.237121582031 -139.522628784180 -0.999999 0.000978 0.000978
119.237899780273 -83.271118164063 -146.019088745117 -0.999999 0.000978 0.000978
119.237899780273 -90.051261901855 -155.493103027344 -0.999999 0.000978 0.000978
119.237899780273 -87.078010559082 -159.081634521484 -0.999999 0.000978 0.000978
119.237899780273 -94.543632507324 -148.799713134766 -0.999999 0.000978 0.000978
123.770133972168 -60.869178771973 -164.970703125000 0.000978 0.000978 -0.999999
178.709014892578 261.366027832031 -164.970687866211 0.000978 0.000978 -0.999999
178.048156738281 259.202758789063 -164.970687866211 0.000978 0.000978 -0.999999
179.747390747070 345.356811523438 -164.970687866211 0.000978 0.000978 -0.999999
156.861053466797 136.814971923828 -164.970703125000 0.000978 0.000978 -0.999999
126.488174438477 -45.604122161865 -164.970703125000 0.000978 0.000978 -0.999999
126.921211242676 -44.769805908203 -164.970703125000 0.000978 0.000978 -0.999999
194.151306152344 445.050384521484 -164.970687866211 0.000978 0.000978 -0.999999
197.680664062500 466.095123291016 -164.970687866211 0.000978 0.000978 -0.999999
191.164825439453 475.595245361328 -164.970687866211 0.000978 0.000978 -0.999999
209.499893188477 470.322540283203 -164.970687866211 0.000978 0.000978 -0.999999
190.735351562500 465.857513427734 -164.970687866211 0.000978 0.000978 -0.999999
203.945755004883 466.558258056641 -164.970687866211 0.000978 0.000978 -0.999999
131.653991699219 -89.988006591797 -164.970703125000 0.000978 0.000978 -0.999999
142.057830810547 -152.101333618164 -164.970703125000 0.000978 0.000978 -0.999999
132.158767700195 -65.145477294922 -164.970703125000 0.000978 0.000978 -0.999999
124.808853149414 -89.580879211426 -164.970703125000 0.000978 0.000978 -0.999999
126.507331848145 -104.346771240234 -164.970703125000 0.000978 0.000978 -0.999999
145.854171752930 -260.406555175781 -164.970718383789 0.000978 0.000978 -0.999999
126.903823852539 -62.210418701172 -164.970703125000 0.000978 0.000978 -0.999999
127.764846801758 -103.814819335938 -164.970703125000 0.000978 0.000978 -0.999999
160.155105590820 -354.520416259766 -164.970718383789 0.000978 0.000978 -0.999999
123.415214538574 -96.230545043945 -164.970703125000 0.000978 0.000978 -0.999999
160.443237304688 -344.485931396484 -164.970718383789 0.000978 0.000978 -0.999999
157.995269775391 -313.543579101563 -164.970718383789 0.000978 0.000978 -0.999999
133.326187133789 -155.658721923828 -164.970703125000 0.000978 0.000978 -0.999999
154.968170166016 -310.348968505859 -164.970718383789 0.000978 0.000978 -0.999999
130.774673461914 -58.012603759766 -164.970703125000 0.000978 0.000978 -0.999999
131.094039916992 -99.702560424805 -164.970703125000 0.000978 0.000978 -0.999999
166.691223144531 -403.152801513672 -164.970718383789 0.000978 0.000978 -0.999999
158.021728515625 -348.464660644531 -164.970718383789 0.000978 0.000978 -0.999999
135.267822265625 -118.696365356445 -164.970703125000 0.000978 0.000978 -0.999999
141.160247802734 -148.684814453125 -164.970703125000 0.000978 0.000978 -0.999999
141.555084228516 -212.056884765625 -164.970718383789 0.000978 0.000978 -0.999999
122.151916503906 -97.033355712891 -164.970703125000 0.000978 0.000978 -0.999999
156.071762084961 -292.929656982422 -164.970718383789 0.000978 0.000978 -0.999999
159.052078247070 -339.437927246094 -164.970718383789 0.000978 0.000978 -0.999999
136.179382324219 -144.031692504883 -164.970718383789 0.000978 0.000978 -0.999999
160.064941406250 -346.551208496094 -164.970718383789 0.000978 0.000978 -0.999999
141.043792724609 -152.121780395508 -164.970703125000 0.000978 0.000978 -0.999999
150.258316040039 -229.135971069336 -164.970718383789 0.000978 0.000978 -0.999999
126.620071411133 -101.563613891602 -164.970703125000 0.000978 0.000978 -0.999999
153.781341552734 -311.337829589844 -164.970718383789 0.000978 0.000978 -0.999999
132.075851440430 -82.021087646484 -164.970703125000 0.000978 0.000978 -0.999999
156.744613647461 -302.299163818359 -164.970718383789 0.000978 0.000978 -0.999999
144.122131347656 -163.852020263672 -164.970703125000 0.000978 0.000978 -0.999999
137.119293212891 -90.639945983887 -164.970703125000 0.000978 0.000978 -0.999999
173.584899902344 -281.590026855469 -164.970718383789 0.000978 0.000978 -0.999999
147.547241210938 -145.152496337891 -164.970703125000 0.000978 0.000978 -0.999999
179.041168212891 -319.509277343750 -164.970718383789 0.000978 0.000978 -0.999999
145.218109130859 -166.238006591797 -164.970703125000 0.000978 0.000978 -0.999999
177.028503417969 -422.068481445313 -164.970718383789 0.000978 0.000978 -0.999999
145.797332763672 -173.774108886719 -164.970703125000 0.000978 0.000978 -0.999999
157.254913330078 -250.583862304688 -164.970718383789 0.000978 0.000978 -0.999999
194.007003784180 -415.212371826172 -164.970718383789 0.000978 0.000978 -0.999999
139.454711914063 -82.420318603516 -164.970703125000 0.000978 0.000978 -0.999999
157.771560668945 -230.613342285156 -164.970718383789 0.000978 0.000978 -0.999999
148.723159790039 -175.360626220703 -164.970703125000 0.000978 0.000978 -0.999999
140.312591552734 -107.467102050781 -164.970703125000 0.000978 0.000978 -0.999999
163.079101562500 -338.863403320313 -164.970718383789 0.000978 0.000978 -0.999999
180.402603149414 -365.558563232422 -164.970718383789 0.000978 0.000978 -0.999999
155.342697143555 -190.380935668945 -164.970703125000 0.000978 0.000978 -0.999999
154.827774047852 -215.726150512695 -164.970703125000 0.000978 0.000978 -0.999999
151.849319458008 -156.371917724609 -164.970703125000 0.000978 0.000978 -0.999999
176.071304321289 -420.475952148438 -164.970718383789 0.000978 0.000978 -0.999999
179.062637329102 -353.941680908203 -164.970718383789 0.000978 0.000978 -0.999999
189.362213134766 -370.093933105469 -164.970718383789 0.000978 0.000978 -0.999999
182.449447631836 -378.927581787109 -164.970718383789 0.000978 0.000978 -0.999999
158.308670043945 -214.887268066406 -164.970703125000 0.000978 0.000978 -0.999999
176.673065185547 -410.518524169922 -164.970718383789 0.000978 0.000978 -0.999999
167.910049438477 -370.728759765625 -164.970718383789 0.000978 0.000978 -0.999999
134.673324584961 -54.256713867188 -164.970703125000 0.000978 0.000978 -0.999999
157.356430053711 -212.590270996094 -164.970703125000 0.000978 0.000978 -0.999999
157.762451171875 -193.123840332031 -164.970703125000 0.000978 0.000978 -0.999999
178.462768554688 -399.309417724609 -164.970718383789 0.000978 0.000978 -0.999999
138.036132812500 -77.148742675781 -164.970703125000 0.000978 0.000978 -0.999999
162.083938598633 -232.785491943359 -164.970718383789 0.000978 0.000978 -0.999999
163.819595336914 -337.081481933594 -164.970718383789 0.000978 0.000978 -0.999999
182.459487915039 -406.931671142578 -164.970718383789 0.000978 0.000978 -0.999999
177.194763183594 -371.250366210938 -164.970718383789 0.000978 0.000978 -0.999999
171.780242919922 -301.849182128906 -164.970718383789 0.000978 0.000978 -0.999999
154.704696655273 -167.568984985352 -164.970703125000 0.000978 0.000978 -0.999999
179.254211425781 -360.232025146484 -164.970718383789 0.000978 0.000978 -0.999999
148.302627563477 -146.623474121094 -164.970703125000 0.000978 0.000978 -0.999999
134.072311401367 -47.566741943359 -164.970703125000 0.000978 0.000978 -0.999999
164.142196655273 -349.219604492188 -164.970718383789 0.000978 0.000978 -0.999999
155.653320312500 -207.783737182617 -164.970703125000 0.000978 0.000978 -0.999999
148.415069580078 -161.377960205078 -164.970703125000 0.000978 0.000978 -0.999999
185.549148559570 -364.910797119141 -164.970718383789 0.000978 0.000978 -0.999999
173.933609008789 -328.015197753906 -164.970718383789 0.000978 0.000978 -0.999999
156.533828735352 -236.257125854492 -164.970718383789 0.000978 0.000978 -0.999999
188.987075805664 -401.644744873047 -164.970718383789 0.000978 0.000978 -0.999999
163.879211425781 -313.164733886719 -164.970718383789 0.000978 0.000978 -0.999999
148.633178710938 -159.015289306641 -164.970703125000 0.000978 0.000978 -0.999999
175.577011108398 -349.074615478516 -164.970718383789 0.000978 0.000978 -0.999999
162.027618408203 -308.125701904297 -164.970718383789 0.000978 0.000978 -0.999999
179.559097290039 -337.668640136719 -164.970718383789 0.000978 0.000978 -0.999999
136.673019409180 -64.652343750000 -164.970703125000 0.000978 0.000978 -0.999999
155.614593505859 -258.811798095703 -164.970718383789 0.000978 0.000978 -0.999999
184.000991821289 -368.361938476563 -164.970718383789 0.000978 0.000978 -0.999999
179.739791870117 -387.171875000000 -164.970718383789 0.000978 0.000978 -0.999999
150.632354736328 -138.831832885742 -164.970703125000 0.000978 0.000978 -0.999999
167.169860839844 -234.633697509766 -164.970718383789 0.000978 0.000978 -0.999999
175.984863281250 -258.135162353516 -164.970718383789 0.000978 0.000978 -0.999999
181.379776000977 -303.062377929688 -164.970718383789 0.000978 0.000978 -0.999999
166.700180053711 -218.542297363281 -164.970703125000 0.000978 0.000978 -0.999999
164.927383422852 -163.790435791016 -164.970703125000 0.000978 0.000978 -0.999999
163.816177368164 -205.545089721680 -164.970703125000 0.000978 0.000978 -0.999999
150.004882812500 -96.342750549316 -164.970703125000 0.000978 0.000978 -0.999999
167.792221069336 -218.656524658203 -164.970703125000 0.000978 0.000978 -0.999999
146.423690795898 -79.523773193359 -164.970703125000 0.000978 0.000978 -0.999999
165.897247314453 -212.353729248047 -164.970703125000 0.000978 0.000978 -0.999999
174.701965332031 -227.576477050781 -164.970703125000 0.000978 0.000978 -0.999999
154.569442749023 -101.092445373535 -164.970703125000 0.000978 0.000978 -0.999999
176.803115844727 -259.150787353516 -164.970718383789 0.000978 0.000978 -0.999999
152.048049926758 -121.086410522461 -164.970703125000 0.000978 0.000978 -0.999999
167.534240722656 -219.856185913086 -164.970703125000 0.000978 0.000978 -0.999999
151.217590332031 -84.035926818848 -164.970703125000 0.000978 0.000978 -0.999999
148.267578125000 -61.679695129395 -164.970703125000 0.000978 0.000978 -0.999999
171.401000976563 -232.216003417969 -164.970703125000 0.000978 0.000978 -0.999999
148.176757812500 -82.239570617676 -164.970703125000 0.000978 0.000978 -0.999999
164.118881225586 -173.850784301758 -164.970703125000 0.000978 0.000978 -0.999999
147.994781494141 -61.302505493164 -164.970703125000 0.000978 0.000978 -0.999999
183.363021850586 -307.704650878906 -164.970718383789 0.000978 0.000978 -0.999999
150.590240478516 -82.542449951172 -164.970703125000 0.000978 0.000978 -0.999999
172.320022583008 -205.670440673828 -164.970703125000 0.000978 0.000978 -0.999999
175.384719848633 -249.347717285156 -164.970718383789 0.000978 0.000978 -0.999999
190.410156250000 -358.952148437500 -164.970718383789 0.000978 0.000978 -0.999999
143.826492309570 -53.920780181885 -164.970703125000 0.000978 0.000978 -0.999999
170.883834838867 -225.473144531250 -164.970703125000 0.000978 0.000978 -0.999999
155.516677856445 -103.991218566895 -164.970703125000 0.000978 0.000978 -0.999999
174.392684936523 -237.982788085938 -164.970703125000 0.000978 0.000978 -0.999999
149.063125610352 -55.943805694580 -164.970703125000 0.000978 0.000978 -0.999999
141.704421997070 -34.357139587402 -164.970703125000 0.000978 0.000978 -0.999999
155.443191528320 -25.986042022705 -164.970703125000 0.000978 0.000978 -0.999999
149.352111816406 -42.738708496094 -164.970703125000 0.000978 0.000978 -0.999999
145.277038574219 -31.897426605225 -164.970703125000 0.000978 0.000978 -0.999999
155.198272705078 1.300713777542 -164.970703125000 0.000978 0.000978 -0.999999
156.217147827148 -30.558626174927 -164.970703125000 0.000978 0.000978 -0.999999
149.846466064453 -26.705703735352 -164.970703125000 0.000978 0.000978 -0.999999
180.586303710938 280.783447265625 -164.970687866211 0.000978 0.000978 -0.999999
171.338363647461 177.629364013672 -164.970703125000 0.000978 0.000978 -0.999999
177.886093139648 244.816589355469 -164.970687866211 0.000978 0.000978 -0.999999
188.982498168945 363.107299804688 -164.970687866211 0.000978 0.000978 -0.999999
191.064422607422 373.398498535156 -164.970687866211 0.000978 0.000978 -0.999999
193.652908325195 400.132232666016 -164.970687866211 0.000978 0.000978 -0.999999
186.620697021484 322.179809570313 -164.970687866211 0.000978 0.000978 -0.999999
178.658111572266 239.017333984375 -164.970703125000 0.000978 0.000978 -0.999999
169.203720092773 140.965179443359 -164.970703125000 0.000978 0.000978 -0.999999
157.946350097656 29.046693801880 -164.970703125000 0.000978 0.000978 -0.999999
188.386535644531 448.026672363281 -164.970687866211 0.000978 0.000978 -0.999999
170.309860229492 149.433334350586 -164.970703125000 0.000978 0.000978 -0.999999
185.228271484375 291.709594726563 -164.970687866211 0.000978 0.000978 -0.999999
191.134399414063 324.001403808594 -164.970687866211 0.000978 0.000978 -0.999999
203.330352783203 402.998748779297 -164.970687866211 0.000978 0.000978 -0.999999
196.642059326172 376.356292724609 -164.970687866211 0.000978 0.000978 -0.999999
190.773925781250 316.298400878906 -164.970687866211 0.000978 0.000978 -0.999999
168.605468750000 115.382232666016 -164.970703125000 0.000978 0.000978 -0.999999
180.375152587891 212.212387084961 -164.970703125000 0.000978 0.000978 -0.999999
197.016769409180 350.697937011719 -164.970687866211 0.000978 0.000978 -0.999999
178.387847900391 199.475097656250 -164.970703125000 0.000978 0.000978 -0.999999
186.174453735352 294.590972900391 -164.970687866211 0.000978 0.000978 -0.999999
167.784820556641 123.255950927734 -164.970703125000 0.000978 0.000978 -0.999999
191.323654174805 296.206939697266 -164.970687866211 0.000978 0.000978 -0.999999
200.129135131836 391.630981445313 -164.970687866211 0.000978 0.000978 -0.999999
199.580459594727 408.977142333984 -164.970687866211 0.000978 0.000978 -0.999999
192.017745971680 306.949981689453 -164.970687866211 0.000978 0.000978 -0.999999
179.367523193359 233.744140625000 -164.970687866211 0.000978 0.000978 -0.999999
203.521057128906 441.632293701172 -164.970687866211 0.000978 0.000978 -0.999999
176.205841064453 201.501602172852 -164.970703125000 0.000978 0.000978 -0.999999
191.804565429688 294.740661621094 -164.970687866211 0.000978 0.000978 -0.999999
191.213867187500 322.516967773438 -164.970687866211 0.000978 0.000978 -0.999999
202.918090820313 413.270507812500 -164.970687866211 0.000978 0.000978 -0.999999
188.901016235352 422.647033691406 -164.970687866211 0.000978 0.000978 -0.999999
155.283569335938 117.895828247070 -164.970703125000 0.000978 0.000978 -0.999999
171.174758911133 258.167266845703 -164.970687866211 0.000978 0.000978 -0.999999
184.308624267578 376.985717773438 -164.970687866211 0.000978 0.000978 -0.999999
161.914016723633 152.078018188477 -164.970703125000 0.000978 0.000978 -0.999999
173.307571411133 255.615051269531 -164.970687866211 0.000978 0.000978 -0.999999
159.658782958984 72.735450744629 -164.970703125000 0.000978 0.000978 -0.999999
174.822921752930 246.497131347656 -164.970687866211 0.000978 0.000978 -0.999999
172.321197509766 210.733963012695 -164.970703125000 0.000978 0.000978 -0.999999
156.032943725586 63.135200500488 -164.970703125000 0.000978 0.000978 -0.999999
147.967834472656 8.568497657776 -164.970703125000 0.000978 0.000978 -0.999999
187.779129028320 402.346008300781 -164.970687866211 0.000978 0.000978 -0.999999
161.796432495117 118.643188476563 -164.970703125000 0.000978 0.000978 -0.999999
174.597640991211 250.896011352539 -164.970687866211 0.000978 0.000978 -0.999999
145.409515380859 4.348352432251 -164.970703125000 0.000978 0.000978 -0.999999
178.830291748047 314.252075195313 -164.970687866211 0.000978 0.000978 -0.999999
172.619537353516 242.341751098633 -164.970687866211 0.000978 0.000978 -0.999999
145.596755981445 0.237445831299 -164.970703125000 0.000978 0.000978 -0.999999
157.119735717773 111.259429931641 -164.970703125000 0.000978 0.000978 -0.999999
164.739242553711 137.901412963867 -164.970703125000 0.000978 0.000978 -0.999999
174.874099731445 276.453552246094 -164.970687866211 0.000978 0.000978 -0.999999
158.914550781250 83.401062011719 -164.970703125000 0.000978 0.000978 -0.999999
147.760192871094 41.270381927490 -164.970703125000 0.000978 0.000978 -0.999999
167.303894042969 204.749328613281 -164.970703125000 0.000978 0.000978 -0.999999
185.982131958008 385.133483886719 -164.970687866211 0.000978 0.000978 -0.999999
177.516937255859 300.841552734375 -164.970687866211 0.000978 0.000978 -0.999999
160.555358886719 125.168464660645 -164.970703125000 0.000978 0.000978 -0.999999
153.449020385742 16.624126434326 -164.970703125000 0.000978 0.000978 -0.999999
156.955657958984 81.828933715820 -164.970703125000 0.000978 0.000978 -0.999999
143.066314697266 -16.462799072266 -164.970703125000 0.000978 0.000978 -0.999999
172.302413940430 201.808639526367 -164.970703125000 0.000978 0.000978 -0.999999
173.543533325195 220.616546630859 -164.970703125000 0.000978 0.000978 -0.999999
186.912551879883 363.090606689453 -164.970687866211 0.000978 0.000978 -0.999999
192.396514892578 427.145996093750 -164.970687866211 0.000978 0.000978 -0.999999
173.163940429688 295.920898437500 -164.970687866211 -0.002938 0.000979 -0.999995
142.576980590820 0.860742866993 -164.970703125000 0.000978 0.000978 -0.999999
151.685577392578 91.422416687012 -164.970703125000 0.000978 0.000978 -0.999999
151.733123779297 96.652023315430 -164.970703125000 0.000978 0.000978 -0.999999
173.203781127930 300.474945068359 -164.970687866211 0.000978 0.000978 -0.999999
124.233398437500 0.069800376892 -164.970703125000 0.000978 0.000978 -0.999999
130.058593750000 -17.813091278076 -164.970703125000 0.000978 0.000978 -0.999999
120.298545837402 -25.676399230957 -164.970703125000 0.000978 0.000978 -0.999999
126.373344421387 -30.282230377197 -164.970703125000 0.000978 0.000978 -0.999999
126.028861999512 -35.862678527832 -164.970703125000 0.000978 0.000978 -0.999999
179.545516967773 425.350646972656 -164.970687866211 0.000978 0.000978 -0.999999
153.190155029297 235.874679565430 -164.970703125000 0.000978 0.000978 -0.999999
185.088241577148 454.145812988281 -164.970687866211 0.000978 0.000978 -0.999999
162.505798339844 283.781341552734 -164.970687866211 0.000978 0.000978 -0.999999
177.404693603516 392.350463867188 -164.970687866211 0.000978 0.000978 -0.999999
170.114273071289 333.722961425781 -164.970687866211 0.000978 0.000978 -0.999999
177.264434814453 413.959411621094 -164.970687866211 0.000978 0.000978 -0.999999
166.082931518555 338.080749511719 -164.970687866211 0.000978 0.000978 -0.999999
154.738098144531 256.630706787109 -164.970703125000 0.000978 0.000978 -0.999999
176.324768066406 400.815582275391 -164.970687866211 0.000978 0.000978 -0.999999
177.005050659180 387.100250244141 -164.970687866211 0.000978 0.000978 -0.999999
169.997528076172 357.503021240234 -164.970687866211 0.000978 0.000978 -0.999999
170.653259277344 371.636352539063 -164.970687866211 0.000978 0.000978 -0.999999
160.290084838867 301.887756347656 -164.970687866211 0.000978 0.000978 -0.999999
180.818099975586 423.726196289063 -164.970703125000 0.000978 0.000978 -0.999999
182.265548706055 426.631469726563 -164.970687866211 0.000978 0.000978 -0.999999
156.424591064453 246.307891845703 -164.970703125000 0.000978 0.000978 -0.999999
167.510482788086 347.976470947266 -164.970687866211 0.000978 0.000978 -0.999999
172.891128540039 377.380554199219 -164.970687866211 0.000978 0.000978 -0.999999
144.563430786133 166.913085937500 -164.970703125000 0.000978 0.000978 -0.999999
130.340484619141 48.328651428223 -164.970703125000 0.000978 0.000978 -0.999999
144.861297607422 116.163230895996 -164.970703125000 0.000978 0.000978 -0.999999
165.941009521484 251.414199829102 -164.970687866211 0.000978 0.000978 -0.999999
138.323272705078 124.468101501465 -164.970703125000 0.000978 0.000978 -0.999999
182.935119628906 396.074615478516 -164.970687866211 0.000978 0.000978 -0.999999
146.992172241211 122.138595581055 -164.970703125000 0.000978 0.000978 -0.999999
126.263069152832 31.690305709839 -164.970703125000 0.000978 0.000978 -0.999999
142.687896728516 139.373138427734 -164.970703125000 0.000978 0.000978 -0.999999
143.802368164063 120.600135803223 -164.970703125000 0.000978 0.000978 -0.999999
125.330451965332 33.353225708008 -164.970703125000 0.000978 0.000978 -0.999999
134.075332641602 -18.951326370239 -164.970703125000 0.000978 0.000978 -0.999999
141.657226562500 64.604583740234 -164.970703125000 0.000978 0.000978 -0.999999
149.837936401367 179.163024902344 -164.970703125000 0.000978 0.000978 -0.999999
146.150207519531 126.137565612793 -164.970703125000 0.000978 0.000978 -0.999999
165.129440307617 289.530975341797 -164.970687866211 0.000978 0.000978 -0.999999
163.538055419922 278.246337890625 -164.970687866211 0.000978 0.000978 -0.999999
167.337432861328 306.647338867188 -164.970687866211 0.000978 0.000978 -0.999999
178.859924316406 372.583374023438 -164.970687866211 0.000978 0.000978 -0.999999
137.447814941406 0.294418334961 -164.970703125000 0.000978 0.000978 -0.999999
154.961547851563 191.996536254883 -164.970703125000 0.000978 0.000978 -0.999999
160.345306396484 222.566085815430 -164.970687866211 0.000978 0.000978 -0.999999
152.629425048828 208.556640625000 -164.970703125000 0.000978 0.000978 -0.999999
152.258407592773 143.821136474609 -164.970703125000 0.000978 0.000978 -0.999999
163.021118164063 276.636322021484 -164.970687866211 0.000978 0.000978 -0.999999
