//X Y Z Nx Ny Nz
600
73.640060424805 -302.760070800781 -143.607574462891 -0.094759 0.001065 0.995500
-33.227020263672 -293.134246826172 -153.758392333984 -0.094759 0.001065 0.995500
-118.238815307617 -300.748657226563 -161.833267211914 -0.094759 0.001065 0.995500
-87.554443359375 -292.292297363281 -158.918701171875 -0.094759 0.001065 0.995500
1.062942504883 -300.678070068359 -150.501342773438 -0.094759 0.001065 0.995500
-109.976974487305 -287.740356445313 -161.048507690430 -0.094759 0.001065 0.995500
-118.283432006836 -302.049224853516 -161.837493896484 -0.094759 0.001065 0.995500
-160.216461181641 -297.104614257813 -165.820526123047 -0.094759 0.001065 0.995500
-163.704833984375 -280.346710205078 -166.151870727539 -0.094759 0.001065 0.995500
-191.126098632813 -288.654327392578 -168.756484985352 -0.094759 0.001065 0.995500
-48.155273437500 -296.170166015625 -155.176345825195 -0.094759 0.001065 0.995500
-75.222335815430 -299.638641357422 -157.747329711914 -0.094759 0.001065 0.995500
-196.863861083984 -299.862457275391 -169.301483154297 -0.094759 0.001065 0.995500
-119.096725463867 -301.942138671875 -161.914749145508 -0.094759 0.001065 0.995500
-160.703704833984 -287.324249267578 -165.866806030273 -0.094759 0.001065 0.995500
-121.125556945801 -286.135864257813 -162.107467651367 -0.094759 0.001065 0.995500
-243.614746093750 -280.692230224609 -173.742141723633 -0.094759 0.001065 0.995500
-236.142410278320 -290.367736816406 -173.032379150391 -0.094759 0.001065 0.995500
18.604995727539 -298.734161376953 -148.835098266602 -0.094759 0.001065 0.995500
-193.580047607422 -296.947387695313 -168.989578247070 -0.094759 0.001065 0.995500
-201.736145019531 -289.689758300781 -169.764282226563 -0.094759 0.001065 0.995500
-139.929183959961 -287.842773437500 -163.893524169922 -0.094759 0.001065 0.995500
-199.142730712891 -281.351684570313 -169.517944335938 -0.094759 0.001065 0.995500
-98.186462402344 -295.969726562500 -159.928588867188 -0.094759 0.001065 0.995500
-13.739166259766 -293.098602294922 -151.907318115234 -0.094759 0.001065 0.995500
-239.443176269531 -294.169250488281 -173.345901489258 -0.094759 0.001065 0.995500
-146.742553710938 -292.907775878906 -164.540695190430 -0.094759 0.001065 0.995500
-50.342010498047 -297.670745849609 -155.384063720703 -0.094759 0.001065 0.995500
-86.602035522461 -301.925659179688 -158.828231811523 -0.094759 0.001065 0.995500
-237.081710815430 -279.016754150391 -173.121597290039 -0.094759 0.001065 0.995500
-132.184906005859 -288.325744628906 -163.157943725586 -0.094759 0.001065 0.995500
-106.807769775391 -287.008361816406 -160.747482299805 -0.094759 0.001065 0.995500
-31.194473266602 -293.211883544922 -153.565322875977 -0.094759 0.001065 0.995500
-67.535522460938 -302.208587646484 -157.017196655273 -0.094759 0.001065 0.995500
31.931564331055 -298.836914062500 -147.569274902344 -0.094759 0.001065 0.995500
-245.959823608398 -286.717010498047 -173.964889526367 -0.094759 0.001065 0.995500
-2.468963623047 -296.958709716797 -150.836822509766 -0.094759 0.001065 0.995500
1.392211914063 -300.562347412109 -150.470062255859 -0.094759 0.001065 0.995500
15.248703002930 -296.065277099609 -149.153900146484 -0.094759 0.001065 0.995500
-46.230072021484 -294.953186035156 -154.993484497070 -0.094759 0.001065 0.995500
-104.493347167969 -302.552551269531 -160.527648925781 -0.094759 0.001065 0.995500
-173.022872924805 -289.763549804688 -167.036941528320 -0.094759 0.001065 0.995500
-244.197265625000 -296.688049316406 -173.797470092773 -0.094759 0.001065 0.995500
114.259963989258 -302.586547851563 -139.749282836914 -0.094759 0.001065 0.995500
-104.693191528320 -301.019592285156 -160.546630859375 -0.094759 0.001065 0.995500
-101.610122680664 -302.086730957031 -160.253784179688 -0.094759 0.001065 0.995500
2.870849609375 -298.965515136719 -150.329620361328 -0.094759 0.001065 0.995500
52.936481475830 -288.114318847656 -145.574127197266 -0.094759 0.001065 0.995500
-89.496337890625 -275.968658447266 -159.103149414063 -0.094759 0.001065 0.995500
-105.989860534668 -274.069946289063 -160.669799804688 -0.094759 0.001065 0.995500
93.614250183105 -293.448608398438 -141.710327148438 -0.094759 0.001065 0.995500
97.064125061035 -299.695068359375 -141.382629394531 -0.094759 0.001065 0.995500
41.472587585449 -286.476837158203 -146.663024902344 -0.094759 0.001065 0.995500
107.150833129883 -293.208038330078 -140.424545288086 -0.094759 0.001065 0.995500
84.316390991211 -275.859558105469 -142.593505859375 -0.094759 0.001065 0.995500
114.846466064453 -291.031341552734 -139.693588256836 -0.094759 0.001065 0.995500
-95.200225830078 -275.470947265625 -159.644943237305 -0.094759 0.001065 0.995500
-86.741889953613 -285.741607666016 -158.841522216797 -0.094759 0.001065 0.995500
-2.326991319656 -277.576019287109 -150.823348999023 -0.094759 0.001065 0.995500
2.372398853302 -276.272338867188 -150.376983642578 -0.094759 0.001065 0.995500
46.152904510498 -294.952148437500 -146.218460083008 -0.094759 0.001065 0.995500
31.310276031494 -277.987152099609 -147.628311157227 -0.094759 0.001065 0.995500
92.300682067871 -288.719177246094 -141.835098266602 -0.094759 0.001065 0.995500
-169.032043457031 -274.201080322266 -166.657882690430 -0.094759 0.001065 0.995500
-18.643739700317 -287.561889648438 -152.373199462891 -0.094759 0.001065 0.995500
-56.111183166504 -277.818115234375 -155.932052612305 -0.094759 0.001065 0.995500
47.106796264648 -282.307189941406 -146.127853393555 -0.094759 0.001065 0.995500
54.942878723145 -275.430664062500 -145.383560180664 -0.094759 0.001065 0.995500
121.216995239258 -300.206390380859 -139.088470458984 -0.094759 0.001065 0.995500
-43.445495605469 -285.247650146484 -154.728988647461 -0.094759 0.001065 0.995500
91.107330322266 -298.423767089844 -141.948455810547 -0.094759 0.001065 0.995500
79.626487731934 -288.858184814453 -143.038970947266 -0.094759 0.001065 0.995500
49.164802551270 -291.826538085938 -145.932373046875 -0.094759 0.001065 0.995500
-151.207183837891 -276.762023925781 -164.964782714844 -0.094759 0.001065 0.995500
44.411941528320 -273.927673339844 -146.383834838867 -0.094759 0.001065 0.995500
-32.240455627441 -273.709320068359 -153.664688110352 -0.094759 0.001065 0.995500
81.773376464844 -294.178924560547 -142.835037231445 -0.094759 0.001065 0.995500
-30.229761123657 -286.961517333984 -153.473693847656 -0.094759 0.001065 0.995500
-53.168975830078 -283.745117187500 -155.652587890625 -0.094759 0.001065 0.995500
-196.270477294922 -273.766784667969 -169.245132446289 -0.094759 0.001065 0.995500
65.174186706543 -287.983489990234 -144.411727905273 -0.094759 0.001065 0.995500
115.177833557129 -292.485046386719 -139.662109375000 -0.094759 0.001065 0.995500
-152.453842163086 -279.298950195313 -165.083190917969 -0.094759 0.001065 0.995500
-91.802764892578 -274.802581787109 -159.322235107422 -0.094759 0.001065 0.995500
46.953907012939 -282.229461669922 -146.142379760742 -0.094759 0.001065 0.995500
73.959999084473 -278.178344726563 -143.577194213867 -0.094759 0.001065 0.995500
-94.852775573730 -285.157012939453 -159.611938476563 -0.094759 0.001065 0.995500
-101.937393188477 -283.459716796875 -160.284866333008 -0.094759 0.001065 0.995500
-31.884407043457 -279.061584472656 -153.630859375000 -0.094759 0.001065 0.995500
-59.615886688232 -285.071472167969 -156.264938354492 -0.094759 0.001065 0.995500
0.942743182182 -281.589355468750 -150.512756347656 -0.094759 0.001065 0.995500
103.240646362305 -287.202941894531 -140.795959472656 -0.094759 0.001065 0.995500
112.822631835938 -288.635009765625 -139.885803222656 -0.094759 0.001065 0.995500
103.481063842773 -289.444244384766 -140.773132324219 -0.094759 0.001065 0.995500
103.070701599121 -289.176116943359 -140.812103271484 -0.094759 0.001065 0.995500
89.938293457031 -274.561248779297 -142.059509277344 -0.094759 0.001065 0.995500
50.502521514893 -295.808471679688 -145.805297851563 -0.094759 0.001065 0.995500
37.963405609131 -283.064727783203 -146.996337890625 -0.094759 0.001065 0.995500
101.736778259277 -293.425750732422 -140.938796997070 -0.094759 0.001065 0.995500
-4.591000556946 -288.705841064453 -151.038375854492 -0.094759 0.001065 0.995500
106.274108886719 -292.092987060547 -140.507827758789 -0.094759 0.001065 0.995500
106.187683105469 -275.427917480469 -140.516052246094 -0.094759 0.001065 0.995500
82.053871154785 -292.688781738281 -142.808395385742 -0.094759 0.001065 0.995500
58.597957611084 -284.240905761719 -145.036361694336 -0.094759 0.001065 0.995500
75.356483459473 -286.795471191406 -143.444549560547 -0.094759 0.001065 0.995500
-228.737045288086 -274.053222656250 -172.328979492188 -0.094759 0.001065 0.995500
28.641220092773 -284.899108886719 -147.881820678711 -0.094759 0.001065 0.995500
10.628686904907 -275.531738281250 -149.592758178711 -0.094759 0.001065 0.995500
56.995655059814 -276.533721923828 -145.188568115234 -0.094759 0.001065 0.995500
117.657897949219 -287.931457519531 -139.426528930664 -0.094759 0.001065 0.995500
113.934883117676 -282.245544433594 -139.780181884766 -0.094759 0.001065 0.995500
37.218368530273 -278.018798828125 -147.067123413086 -0.094759 0.001065 0.995500
79.965812683105 -296.525268554688 -143.006729125977 -0.094759 0.001065 0.995500
-10.666363716125 -275.064758300781 -151.615478515625 -0.094759 0.001065 0.995500
-9.873524665833 -282.447540283203 -151.540161132813 -0.094759 0.001065 0.995500
-74.640625000000 -285.315002441406 -157.692077636719 -0.094759 0.001065 0.995500
35.990421295166 -286.689880371094 -147.183746337891 -0.094759 0.001065 0.995500
121.685363769531 -293.422241210938 -139.043991088867 -0.094759 0.001065 0.995500
-16.305633544922 -274.095550537109 -152.151107788086 -0.094759 0.001065 0.995500
-149.583572387695 -279.394622802734 -164.810562133789 -0.094759 0.001065 0.995500
-19.362253189087 -275.589508056641 -152.441452026367 -0.094759 0.001065 0.995500
-148.436035156250 -303.047485351563 -178.947372436523 0.000978 -0.999999 0.000978
-10.530242919922 -303.047485351563 -171.424285888672 0.000978 -0.999999 0.000978
-69.967681884766 -303.047485351563 -175.996566772461 0.000978 -0.999999 0.000978
-78.883865356445 -303.047485351563 -175.895584106445 0.000978 -0.999999 0.000978
-71.109512329102 -303.047485351563 -171.343612670898 0.000978 -0.999999 0.000978
-19.494003295898 -303.047485351563 -167.436035156250 0.000978 -0.999999 0.000978
-129.731750488281 -303.047485351563 -179.007904052734 0.000978 -0.999999 0.000978
-23.876037597656 -303.047485351563 -167.881912231445 0.000978 -0.999999 0.000978
-80.130142211914 -303.047485351563 -175.231430053711 0.000978 -0.999999 0.000978
-47.258728027344 -303.047485351563 -173.509399414063 0.000978 -0.999999 0.000978
-27.332855224609 -303.047485351563 -170.719726562500 0.000978 -0.999999 0.000978
-167.016235351563 -303.047485351563 -182.135925292969 0.000978 -0.999999 0.000978
-144.826751708984 -303.047485351563 -181.710006713867 0.000978 -0.999999 0.000978
-241.461364746094 -303.047485351563 -182.645568847656 0.000978 -0.999999 0.000978
-161.673629760742 -303.047485351563 -179.524505615234 0.000978 -0.999999 0.000978
-140.432861328125 -303.047485351563 -173.335296630859 0.000978 -0.999999 0.000978
-239.688766479492 -303.047485351563 -180.694732666016 0.000978 -0.999999 0.000978
-199.048339843750 -303.047485351563 -182.198486328125 0.000978 -0.999999 0.000978
-212.953643798828 -303.047485351563 -184.050567626953 0.000978 -0.999999 0.000978
-114.479507446289 -303.047485351563 -170.780960083008 0.000978 -0.999999 0.000978
-35.549285888672 -303.047485351563 -170.375335693359 0.000978 -0.999999 0.000978
-181.681655883789 -303.047485351563 -172.145111083984 0.000978 -0.999999 0.000978
-181.400695800781 -303.047485351563 -181.356567382813 0.000978 -0.999999 0.000978
-175.920043945313 -303.047485351563 -183.240921020508 0.000978 -0.999999 0.000978
32.440658569336 -303.047485351563 -167.961425781250 0.000978 -0.999999 0.000978
-152.190032958984 -303.047485351563 -179.670959472656 0.000978 -0.999999 0.000978
-171.369720458984 -303.047485351563 -181.224105834961 0.000978 -0.999999 0.000978
-227.620773315430 -303.047485351563 -174.747695922852 0.000978 -0.999999 0.000978
12.157760620117 -303.047485351563 -164.876327514648 0.000978 -0.999999 0.000978
-35.936584472656 -303.047485351563 -171.768005371094 0.000978 -0.999999 0.000978
-217.412933349609 -303.047485351563 -190.574935913086 0.000978 -0.999999 0.000978
-132.998748779297 -303.047485351563 -176.266876220703 0.000978 -0.999999 0.000978
-138.735137939453 -303.047485351563 -179.265914916992 0.000978 -0.999999 0.000978
-101.857742309570 -303.047485351563 -174.023895263672 0.000978 -0.999999 0.000978
-129.395782470703 -303.047485351563 -169.708923339844 0.000978 -0.999999 0.000978
-219.612823486328 -303.047485351563 -173.680465698242 0.000978 -0.999999 0.000978
13.903396606445 -303.047485351563 -166.532546997070 0.000978 -0.999999 0.000978
14.272811889648 -303.047485351563 -169.305282592773 0.000978 -0.999999 0.000978
-11.978637695313 -303.047485351563 -169.390426635742 0.000978 -0.999999 0.000978
-186.472564697266 -303.047485351563 -182.659103393555 0.000978 -0.999999 0.000978
-16.234634399414 -303.047485351563 -171.473052978516 0.000978 -0.999999 0.000978
-237.561508178711 -303.047485351563 -189.026062011719 0.000978 -0.999999 0.000978
46.125289916992 -303.047485351563 -166.538574218750 0.000978 -0.999999 0.000978
-141.282287597656 -303.047485351563 -183.587158203125 0.000978 -0.999999 0.000978
-214.852127075195 -303.047485351563 -184.309387207031 0.000978 -0.999999 0.000978
-56.243743896484 -303.047485351563 -170.323059082031 0.000978 -0.999999 0.000978
-107.122711181641 -303.047485351563 -173.723907470703 0.000978 -0.999999 0.000978
-9.655776977539 -303.047485351563 -165.650238037109 0.000978 -0.999999 0.000978
-157.337341308594 -303.047485351563 -174.148239135742 0.000978 -0.999999 0.000978
120.445632934570 -303.047485351563 -146.313735961914 0.000978 -0.999999 0.000978
-103.465301513672 -303.047485351563 -163.452636718750 0.000978 -0.999999 0.000978
-139.182525634766 -303.047485351563 -167.450942993164 0.000978 -0.999999 0.000978
-3.946060180664 -303.047485351563 -163.998550415039 0.000978 -0.999999 0.000978
-16.680358886719 -303.047485351563 -159.974807739258 0.000978 -0.999999 0.000978
42.112174987793 -303.047485351563 -153.497009277344 0.000978 -0.999999 0.000978
13.513259887695 -303.047485351563 -159.416275024414 0.000978 -0.999999 0.000978
108.858825683594 -303.047485351563 -145.881469726563 0.000978 -0.999999 0.000978
-68.233703613281 -303.047485351563 -159.879852294922 0.000978 -0.999999 0.000978
60.945606231689 -303.047485351563 -154.306930541992 0.000978 -0.999999 0.000978
-43.301620483398 -303.047485351563 -165.370605468750 0.000978 -0.999999 0.000978
8.097686767578 -303.047485351563 -164.126739501953 0.000978 -0.999999 0.000978
-139.349304199219 -303.047485351563 -167.947052001953 0.000978 -0.999999 0.000978
111.012985229492 -303.047485351563 -146.335357666016 0.000978 -0.999999 0.000978
104.935203552246 -303.047485351563 -146.837951660156 0.000978 -0.999999 0.000978
-45.938674926758 -303.047485351563 -159.947860717773 0.000978 -0.999999 0.000978
32.115463256836 -303.047485351563 -149.911453247070 0.000978 -0.999999 0.000978
120.404121398926 -303.047485351563 -142.630264282227 0.000978 -0.999999 0.000978
-154.098144531250 -303.047485351563 -168.064132690430 0.000978 -0.999999 0.000978
61.975852966309 -303.047485351563 -154.610687255859 0.000978 -0.999999 0.000978
-96.510162353516 -303.047485351563 -165.423507690430 0.000978 -0.999999 0.000978
110.345718383789 -303.047485351563 -153.756713867188 0.000978 -0.999999 0.000978
11.598266601563 -303.047485351563 -150.341217041016 0.000978 -0.999999 0.000978
-103.936233520508 -303.047485351563 -165.716079711914 0.000978 -0.999999 0.000978
112.269309997559 -303.047485351563 -152.499221801758 0.000978 -0.999999 0.000978
-57.196945190430 -303.047485351563 -161.786651611328 0.000978 -0.999999 0.000978
54.574821472168 -303.047485351563 -160.658706665039 0.000978 -0.999999 0.000978
82.051284790039 -303.047485351563 -158.360519409180 0.000978 -0.999999 0.000978
-15.499649047852 -303.047485351563 -160.284774780273 0.000978 -0.999999 0.000978
-62.537933349609 -303.047485351563 -160.053619384766 0.000978 -0.999999 0.000978
53.864234924316 -303.047485351563 -152.229873657227 0.000978 -0.999999 0.000978
-177.068084716797 -303.047485351563 -168.194061279297 0.000978 -0.999999 0.000978
21.332511901855 -303.047485351563 -152.649246215820 0.000978 -0.999999 0.000978
-126.429153442383 -303.047485351563 -165.093246459961 0.000978 -0.999999 0.000978
-14.099258422852 -303.047485351563 -162.530975341797 0.000978 -0.999999 0.000978
40.393989562988 -303.047485351563 -160.888641357422 0.000978 -0.999999 0.000978
117.319610595703 -303.047485351563 -156.100555419922 0.000978 -0.999999 0.000978
-26.160079956055 -303.047485351563 -165.327209472656 0.000978 -0.999999 0.000978
93.513572692871 -303.047485351563 -147.482559204102 0.000978 -0.999999 0.000978
-140.809600830078 -303.047485351563 -167.043899536133 0.000978 -0.999999 0.000978
-147.222045898438 -303.047485351563 -166.563903808594 0.000978 -0.999999 0.000978
-79.337478637695 -303.047485351563 -160.389953613281 0.000978 -0.999999 0.000978
-38.011077880859 -303.047485351563 -163.957992553711 0.000978 -0.999999 0.000978
71.778411865234 -303.047485351563 -149.460617065430 0.000978 -0.999999 0.000978
-172.612030029297 -303.047485351563 -167.156707763672 0.000978 -0.999999 0.000978
-38.228820800781 -303.047485351563 -165.335372924805 0.000978 -0.999999 0.000978
33.465515136719 -303.047485351563 -160.378555297852 0.000978 -0.999999 0.000978
32.390975952148 -303.047485351563 -156.406890869141 0.000978 -0.999999 0.000978
-124.507278442383 -303.047485351563 -165.137374877930 0.000978 -0.999999 0.000978
40.772460937500 -303.047485351563 -159.882171630859 0.000978 -0.999999 0.000978
-119.508773803711 -303.047485351563 -168.809600830078 0.000978 -0.999999 0.000978
48.222366333008 -303.047485351563 -149.321105957031 0.000978 -0.999999 0.000978
93.277954101563 -0.730381011963 -134.136718750000 0.000978 0.000978 0.999999
97.032394409180 -4.759478569031 -134.136718750000 0.000978 0.000978 0.999999
94.879920959473 -17.226053237915 -134.136718750000 0.000978 0.000978 0.999999
138.384460449219 -375.981048583984 -134.136734008789 0.000978 0.000978 0.999999
140.002136230469 -382.287719726563 -134.136734008789 0.000978 0.000978 0.999999
133.948486328125 -362.081268310547 -134.136734008789 0.000978 0.000978 0.999999
137.447097778320 -377.255157470703 -134.136734008789 0.000978 0.000978 0.999999
142.619033813477 -412.144226074219 -134.136734008789 0.000978 0.000978 0.999999
144.741973876953 -410.430847167969 -134.136734008789 0.000978 0.000978 0.999999
180.161621093750 453.303070068359 -134.136703491211 0.000978 0.000978 0.999999
179.588119506836 459.896179199219 -134.136703491211 0.000978 0.000978 0.999999
164.335739135742 449.805114746094 -134.136703491211 0.000978 0.000978 0.999999
169.805465698242 474.176452636719 -134.136703491211 0.000978 0.000978 0.999999
180.787078857422 471.791992187500 -134.136703491211 0.000978 0.000978 0.999999
172.592147827148 463.974822998047 -134.136703491211 0.000978 0.000978 0.999999
170.870941162109 364.581481933594 -134.136703491211 0.000978 0.000978 0.999999
168.106704711914 404.872680664063 -134.136703491211 0.000978 0.000978 0.999999
163.370925903320 387.006408691406 -134.136703491211 0.000978 0.000978 0.999999
162.286636352539 385.872802734375 -134.136703491211 0.000978 0.000978 0.999999
168.821136474609 431.547149658203 -134.136703491211 0.000978 0.000978 0.999999
142.746246337891 327.934600830078 -134.136703491211 0.000978 0.000978 0.999999
145.701232910156 389.806091308594 -134.136703491211 0.000978 0.000978 0.999999
145.930374145508 380.323913574219 -134.136703491211 0.000978 0.000978 0.999999
147.006378173828 399.398620605469 -134.136703491211 0.000978 0.000978 0.999999
146.223007202148 317.563354492188 -134.136703491211 0.000978 0.000978 0.999999
142.995346069336 370.765228271484 -134.136703491211 0.000978 0.000978 0.999999
145.252609252930 382.735473632813 -134.136703491211 0.000978 0.000978 0.999999
144.759567260742 373.876434326172 -134.136703491211 0.000978 0.000978 0.999999
143.957550048828 316.724670410156 -134.136703491211 0.000978 0.000978 0.999999
144.604705810547 383.942932128906 -134.136703491211 0.000978 0.000978 0.999999
141.533508300781 307.174804687500 -134.136703491211 0.000978 0.000978 0.999999
138.932083129883 308.442871093750 -134.136703491211 0.000978 0.000978 0.999999
137.660293579102 328.924804687500 -134.136703491211 0.000978 0.000978 0.999999
144.165069580078 341.649536132813 -134.136703491211 0.000978 0.000978 0.999999
143.578491210938 321.521270751953 -134.136703491211 0.000978 0.000978 0.999999
147.701156616211 331.759246826172 -134.136703491211 0.000978 0.000978 0.999999
149.267578125000 391.186218261719 -134.136703491211 0.000978 0.000978 0.999999
148.590393066406 290.649566650391 -134.136703491211 0.000978 0.000978 0.999999
150.046234130859 364.521972656250 -134.136703491211 0.000978 0.000978 0.999999
154.181365966797 292.024627685547 -134.136703491211 0.000978 0.000978 0.999999
147.676269531250 389.238342285156 -134.136703491211 0.000978 0.000978 0.999999
154.605148315430 308.633575439453 -134.136703491211 0.000978 0.000978 0.999999
153.232269287109 288.649902343750 -134.136703491211 0.000978 0.000978 0.999999
153.462234497070 358.147308349609 -134.136703491211 0.000978 0.000978 0.999999
151.055938720703 352.085083007813 -134.136703491211 0.000978 0.000978 0.999999
149.978759765625 292.314971923828 -134.136703491211 0.000978 0.000978 0.999999
152.646316528320 292.707214355469 -134.136703491211 0.000978 0.000978 0.999999
156.092330932617 392.663513183594 -134.136703491211 0.000978 0.000978 0.999999
161.956451416016 323.199584960938 -134.136703491211 0.000978 0.000978 0.999999
157.114654541016 382.649810791016 -134.136703491211 0.000978 0.000978 0.999999
160.007019042969 364.654449462891 -134.136703491211 0.000978 0.000978 0.999999
156.425857543945 368.120513916016 -134.136703491211 0.000978 0.000978 0.999999
156.107528686523 386.232299804688 -134.136703491211 0.000978 0.000978 0.999999
159.900985717773 365.120788574219 -134.136703491211 0.000978 0.000978 0.999999
151.918258666992 382.292694091797 -134.136703491211 0.000978 0.000978 0.999999
159.679656982422 402.245849609375 -134.136703491211 0.000978 0.000978 0.999999
154.224639892578 373.895233154297 -134.136703491211 0.000978 0.000978 0.999999
156.078903198242 418.493225097656 -134.136703491211 0.000978 0.000978 0.999999
158.902008056641 350.653198242188 -134.136703491211 0.000978 0.000978 0.999999
159.880661010742 334.445983886719 -134.136703491211 0.000978 0.000978 0.999999
155.672744750977 427.944915771484 -134.136703491211 0.000978 0.000978 0.999999
149.683395385742 415.630310058594 -134.136703491211 0.000978 0.000978 0.999999
109.788391113281 -105.598594665527 -134.136734008789 0.000978 0.000978 0.999999
103.145187377930 -84.006744384766 -134.136718750000 0.000978 0.000978 0.999999
108.163116455078 -106.105369567871 -134.136718750000 0.000978 0.000978 0.999999
115.908226013184 -219.793365478516 -134.136734008789 0.000978 0.000978 0.999999
105.381713867188 -52.744155883789 -134.136718750000 0.000978 0.000978 0.999999
109.550178527832 -161.546096801758 -134.136718750000 0.000978 0.000978 0.999999
114.496414184570 -178.078811645508 -134.136734008789 0.000978 0.000978 0.999999
104.377075195313 -114.308570861816 -134.136718750000 0.000978 0.000978 0.999999
104.358894348145 -120.269973754883 -134.136718750000 0.000978 0.000978 0.999999
107.069511413574 -124.677749633789 -134.136718750000 0.000978 0.000978 0.999999
103.335342407227 -130.873153686523 -134.136718750000 0.000978 0.000978 0.999999
109.374130249023 -162.704574584961 -134.136718750000 0.000978 0.000978 0.999999
106.744186401367 -96.855171203613 -134.136718750000 0.000978 0.000978 0.999999
109.505905151367 -143.712677001953 -134.136718750000 0.000978 0.000978 0.999999
107.019630432129 -161.940994262695 -134.136718750000 0.000978 0.000978 0.999999
109.075973510742 -146.483566284180 -134.136718750000 0.000978 0.000978 0.999999
103.784721374512 -73.899406433105 -134.136718750000 0.000978 0.000978 0.999999
117.414627075195 -59.970565795898 -134.136718750000 0.000978 0.000978 0.999999
113.212684631348 -74.467033386230 -134.136718750000 0.000978 0.000978 0.999999
115.145133972168 -88.407012939453 -134.136734008789 0.000978 0.000978 0.999999
117.952369689941 -135.918289184570 -134.136734008789 0.000978 0.000978 0.999999
117.770019531250 -69.964721679688 -134.136718750000 0.000978 0.000978 0.999999
117.346656799316 -90.695266723633 -134.136718750000 0.000978 0.000978 0.999999
115.994163513184 -175.055862426758 -134.136734008789 0.000978 0.000978 0.999999
118.201164245605 -134.444702148438 -134.136734008789 0.000978 0.000978 0.999999
116.946128845215 -133.698150634766 -134.136734008789 0.000978 0.000978 0.999999
117.556983947754 -210.955581665039 -134.136734008789 0.000978 0.000978 0.999999
115.847900390625 -150.666763305664 -134.136734008789 0.000978 0.000978 0.999999
114.214141845703 -127.590194702148 -134.136734008789 0.000978 0.000978 0.999999
112.535926818848 -80.929954528809 -134.136718750000 0.000978 0.000978 0.999999
118.181686401367 -38.438476562500 -134.136718750000 0.000978 0.000978 0.999999
111.653663635254 -106.443267822266 -134.136718750000 0.000978 0.000978 0.999999
112.436302185059 -127.735397338867 -134.136718750000 0.000978 0.000978 0.999999
112.115524291992 -123.174407958984 -134.136718750000 0.000978 0.000978 0.999999
107.743972778320 -57.011043548584 -134.136718750000 0.000978 0.000978 0.999999
115.968727111816 -194.875152587891 -134.136734008789 0.000978 0.000978 0.999999
97.952018737793 -42.048320770264 -134.136718750000 0.000978 0.000978 0.999999
95.569519042969 -38.693267822266 -134.136718750000 0.000978 0.000978 0.999999
95.923156738281 -51.581809997559 -134.136718750000 0.000978 0.000978 0.999999
100.541313171387 -34.773128509521 -134.136718750000 0.000978 0.000978 0.999999
101.555435180664 -147.461715698242 -134.136718750000 0.000978 0.000978 0.999999
98.954093933105 -124.311775207520 -134.136718750000 0.000978 0.000978 0.999999
101.042610168457 -131.329467773438 -134.136718750000 0.000978 0.000978 0.999999
99.687835693359 -140.664550781250 -134.136718750000 0.000978 0.000978 0.999999
99.523345947266 -90.462394714355 -134.136718750000 0.000978 0.000978 0.999999
95.597206115723 -114.514389038086 -134.136718750000 0.000978 0.000978 0.999999
100.722694396973 -85.742172241211 -134.136718750000 0.000978 0.000978 0.999999
99.430526733398 -111.050689697266 -134.136718750000 0.000978 0.000978 0.999999
108.603385925293 45.137069702148 -134.136718750000 0.000978 0.000978 0.999999
112.402061462402 56.016616821289 -134.136718750000 0.000978 0.000978 0.999999
110.177505493164 44.528099060059 -134.136718750000 0.000978 0.000978 0.999999
115.714958190918 66.551277160645 -134.136718750000 0.000978 0.000978 0.999999
112.463439941406 63.578903198242 -134.136718750000 0.000978 0.000978 0.999999
105.145256042480 35.609294891357 -134.136718750000 0.000978 0.000978 0.999999
105.482498168945 67.664695739746 -134.136718750000 0.000978 0.000978 0.999999
110.558502197266 22.120536804199 -134.136718750000 0.000978 0.000978 0.999999
112.575088500977 30.605255126953 -134.136718750000 0.000978 0.000978 0.999999
102.664009094238 36.386077880859 -134.136718750000 0.000978 0.000978 0.999999
103.109558105469 18.192766189575 -134.136718750000 0.000978 0.000978 0.999999
103.535118103027 40.254856109619 -134.136718750000 0.000978 0.000978 0.999999
114.988014221191 -17.395730972290 -134.136718750000 0.000978 0.000978 0.999999
109.311721801758 -5.477487087250 -134.136718750000 0.000978 0.000978 0.999999
111.591766357422 6.204782962799 -134.136718750000 0.000978 0.000978 0.999999
110.551460266113 -5.195720672607 -134.136718750000 0.000978 0.000978 0.999999
116.950958251953 37.802921295166 -134.136718750000 0.000978 0.000978 0.999999
116.252014160156 -4.480683326721 -134.136718750000 0.000978 0.000978 0.999999
115.443832397461 -8.132175445557 -134.136718750000 0.000978 0.000978 0.999999
115.369667053223 -10.393419265747 -134.136718750000 0.000978 0.000978 0.999999
102.078765869141 -5.274414062500 -134.136718750000 0.000978 0.000978 0.999999
94.415107727051 11.807832717896 -134.136718750000 0.000978 0.000978 0.999999
96.097496032715 15.017923355103 -134.136718750000 0.000978 0.000978 0.999999
97.436866760254 5.938125610352 -134.136718750000 0.000978 0.000978 0.999999
96.587982177734 48.108196258545 -134.136718750000 0.000978 0.000978 0.999999
99.754417419434 -2.197517395020 -134.136718750000 0.000978 0.000978 0.999999
100.947105407715 19.603988647461 -134.136718750000 0.000978 0.000978 0.999999
109.913909912109 78.135681152344 -134.136718750000 0.000978 0.000978 0.999999
104.450210571289 83.398872375488 -134.136718750000 0.000978 0.000978 0.999999
105.170265197754 100.165580749512 -134.136718750000 0.000978 0.000978 0.999999
109.190727233887 99.109344482422 -134.136718750000 0.000978 0.000978 0.999999
116.214859008789 147.247467041016 -134.136703491211 0.000978 0.000978 0.999999
106.150009155273 111.519287109375 -134.136718750000 0.000978 0.000978 0.999999
115.001358032227 109.116584777832 -134.136718750000 0.000978 0.000978 0.999999
115.361610412598 140.802581787109 -134.136703491211 0.000978 0.000978 0.999999
109.557685852051 134.402572631836 -134.136718750000 0.000978 0.000978 0.999999
113.486465454102 77.834457397461 -134.136718750000 0.000978 0.000978 0.999999
108.202232360840 106.700958251953 -134.136718750000 0.000978 0.000978 0.999999
117.090141296387 115.406005859375 -134.136718750000 0.000978 0.000978 0.999999
117.170021057129 73.986785888672 -134.136718750000 0.000978 0.000978 0.999999
107.692230224609 99.521011352539 -134.136718750000 0.000978 0.000978 0.999999
110.172492980957 121.249664306641 -134.136718750000 0.000978 0.000978 0.999999
114.671241760254 137.393310546875 -134.136703491211 0.000978 0.000978 0.999999
138.616043090820 140.497283935547 -134.136718750000 0.000978 0.000978 0.999999
140.711776733398 134.851486206055 -134.136718750000 0.000978 0.000978 0.999999
135.089569091797 140.550506591797 -134.136718750000 0.000978 0.000978 0.999999
138.008483886719 151.206634521484 -134.136718750000 0.000978 0.000978 0.999999
144.409408569336 153.497619628906 -134.136718750000 0.000978 0.000978 0.999999
137.338531494141 143.304046630859 -134.136718750000 0.000978 0.000978 0.999999
142.708450317383 149.531616210938 -134.136718750000 0.000978 0.000978 0.999999
124.750999450684 124.096435546875 -134.136718750000 0.000978 0.000978 0.999999
125.506767272949 135.256713867188 -134.136718750000 0.000978 0.000978 0.999999
137.658065795898 152.906890869141 -134.136718750000 0.000978 0.000978 0.999999
133.235458374023 135.967010498047 -134.136718750000 0.000978 0.000978 0.999999
134.595703125000 86.106369018555 -134.136718750000 0.000978 0.000978 0.999999
124.439437866211 127.892700195313 -134.136718750000 0.000978 0.000978 0.999999
123.511245727539 139.446975708008 -134.136718750000 0.000978 0.000978 0.999999
122.733795166016 125.032821655273 -134.136718750000 0.000978 0.000978 0.999999
123.952644348145 143.503463745117 -134.136718750000 0.000978 0.000978 0.999999
119.535293579102 195.475372314453 -134.136703491211 0.000978 0.000978 0.999999
122.261177062988 157.759796142578 -134.136703491211 0.000978 0.000978 0.999999
120.399139404297 121.022239685059 -134.136718750000 0.000978 0.000978 0.999999
119.070411682129 190.817611694336 -134.136703491211 0.000978 0.000978 0.999999
123.028419494629 102.887878417969 -134.136718750000 0.000978 0.000978 0.999999
126.420410156250 158.401473999023 -134.136718750000 0.000978 0.000978 0.999999
125.436485290527 187.134506225586 -134.136718750000 0.000978 0.000978 0.999999
129.591476440430 217.586868286133 -134.136718750000 0.000978 0.000978 0.999999
124.905822753906 201.113998413086 -134.136703491211 0.000978 0.000978 0.999999
128.526382446289 235.553100585938 -134.136703491211 0.000978 0.000978 0.999999
123.397277832031 238.339248657227 -134.136703491211 0.000978 0.000978 0.999999
125.556213378906 236.191421508789 -134.136703491211 0.000978 0.000978 0.999999
119.071510314941 208.342803955078 -134.136703491211 0.000978 0.000978 0.999999
124.358627319336 180.345214843750 -134.136718750000 0.000978 0.000978 0.999999
119.780082702637 209.601745605469 -134.136703491211 0.000978 0.000978 0.999999
128.789749145508 160.317611694336 -134.136718750000 0.000978 0.000978 0.999999
129.988708496094 196.797775268555 -134.136718750000 0.000978 0.000978 0.999999
130.866958618164 267.352691650391 -134.136703491211 0.000978 0.000978 0.999999
134.979919433594 203.759857177734 -134.136718750000 0.000978 0.000978 0.999999
136.614715576172 224.894134521484 -134.136703491211 0.000978 0.000978 0.999999
136.970184326172 280.262664794922 -134.136703491211 0.000978 0.000978 0.999999
134.861862182617 265.431640625000 -134.136703491211 0.000978 0.000978 0.999999
130.868423461914 178.437606811523 -134.136718750000 0.000978 0.000978 0.999999
131.646881103516 253.305831909180 -134.136703491211 0.000978 0.000978 0.999999
139.790771484375 251.206314086914 -134.136703491211 0.000978 0.000978 0.999999
136.538543701172 275.268585205078 -134.136703491211 0.000978 0.000978 0.999999
138.336914062500 237.975036621094 -134.136703491211 0.000978 0.000978 0.999999
144.647171020508 284.109527587891 -134.136703491211 0.000978 0.000978 0.999999
140.358245849609 277.670440673828 -134.136703491211 0.000978 0.000978 0.999999
130.106903076172 267.772613525391 -134.136703491211 0.000978 0.000978 0.999999
130.353805541992 250.280517578125 -134.136703491211 0.000978 0.000978 0.999999
144.986938476563 274.437438964844 -134.136703491211 0.000978 0.000978 0.999999
152.593063354492 434.642211914063 -134.136703491211 0.000978 0.000978 0.999999
155.934600830078 441.686004638672 -134.136703491211 0.000978 0.000978 0.999999
152.748870849609 448.741760253906 -134.136703491211 0.000978 0.000978 0.999999
161.557891845703 460.049652099609 -134.136703491211 0.000978 0.000978 0.999999
159.733306884766 452.152740478516 -134.136703491211 0.000978 0.000978 0.999999
156.212829589844 475.061004638672 -134.136703491211 0.000978 0.000978 0.999999
176.117935180664 420.973114013672 -134.136703491211 0.000978 0.000978 0.999999
176.311630249023 433.622894287109 -134.136703491211 0.000978 0.000978 0.999999
174.428894042969 403.253234863281 -134.136703491211 0.000978 0.000978 0.999999
171.841232299805 399.049621582031 -134.136703491211 0.000978 0.000978 0.999999
172.898345947266 370.365661621094 -134.136703491211 0.000978 0.000978 0.999999
177.711410522461 440.814758300781 -134.136703491211 0.000978 0.000978 0.999999
176.477111816406 444.724975585938 -134.136703491211 0.000978 0.000978 0.999999
165.567810058594 416.708953857422 -134.136703491211 0.000978 0.000978 0.999999
167.934814453125 371.620849609375 -134.136703491211 0.000978 0.000978 0.999999
167.426315307617 358.258880615234 -134.136703491211 0.000978 0.000978 0.999999
169.536956787109 346.263946533203 -134.136703491211 0.000978 0.000978 0.999999
165.589691162109 351.441925048828 -134.136703491211 0.000978 0.000978 0.999999
165.214569091797 389.960357666016 -134.136703491211 0.000978 0.000978 0.999999
164.998687744141 371.418731689453 -134.136703491211 0.000978 0.000978 0.999999
162.888046264648 329.419982910156 -134.136703491211 0.000978 0.000978 0.999999
158.692245483398 277.678771972656 -134.136703491211 0.000978 0.000978 0.999999
161.693374633789 281.418273925781 -134.136703491211 0.000978 0.000978 0.999999
152.264190673828 270.549041748047 -134.136703491211 0.000978 0.000978 0.999999
149.548553466797 240.703674316406 -134.136718750000 0.000978 0.000978 0.999999
155.308670043945 234.417266845703 -134.136703491211 0.000978 0.000978 0.999999
147.975723266602 247.195831298828 -134.136703491211 0.000978 0.000978 0.999999
148.851181030273 178.856781005859 -134.136718750000 0.000978 0.000978 0.999999
149.226104736328 208.923309326172 -134.136718750000 0.000978 0.000978 0.999999
161.187698364258 277.403320312500 -134.136703491211 0.000978 0.000978 0.999999
147.715316772461 236.568817138672 -134.136703491211 0.000978 0.000978 0.999999
154.137298583984 246.799728393555 -134.136718750000 0.000978 0.000978 0.999999
149.968200683594 205.607315063477 -134.136718750000 0.000978 0.000978 0.999999
143.190856933594 211.500427246094 -134.136718750000 0.000978 0.000978 0.999999
144.709243774414 210.034225463867 -134.136718750000 0.000978 0.000978 0.999999
137.394378662109 195.007080078125 -134.136718750000 0.000978 0.000978 0.999999
147.135177612305 219.846130371094 -134.136718750000 0.000978 0.000978 0.999999
144.256423950195 167.335830688477 -134.136718750000 0.000978 0.000978 0.999999
146.385986328125 203.542755126953 -134.136718750000 0.000978 0.000978 0.999999
142.879486083984 215.957229614258 -134.136718750000 0.000978 0.000978 0.999999
143.943832397461 197.130371093750 -134.136718750000 0.000978 0.000978 0.999999
145.372940063477 206.740737915039 -134.136718750000 0.000978 0.000978 0.999999
140.849426269531 199.134704589844 -134.136718750000 0.000978 0.000978 0.999999
136.428085327148 157.772598266602 -134.136718750000 0.000978 0.000978 0.999999
146.660568237305 226.405639648438 -134.136703491211 0.000978 0.000978 0.999999
141.783264160156 189.505065917969 -134.136718750000 0.000978 0.000978 0.999999
119.044540405273 -29.653091430664 -134.136718750000 0.000978 0.000978 0.999999
124.517799377441 -7.452651977539 -134.136718750000 0.000978 0.000978 0.999999
123.808967590332 -1.465552806854 -134.136718750000 0.000978 0.000978 0.999999
121.378646850586 -10.286038398743 -134.136718750000 0.000978 0.000978 0.999999
120.051414489746 27.561933517456 -134.136718750000 0.000978 0.000978 0.999999
119.744857788086 25.087398529053 -134.136718750000 0.000978 0.000978 0.999999
121.088050842285 18.372262954712 -134.136718750000 0.000978 0.000978 0.999999
122.573883056641 30.869144439697 -134.136718750000 0.000978 0.000978 0.999999
121.140693664551 0.006916046143 -134.136718750000 0.000978 0.000978 0.999999
123.224189758301 40.176620483398 -134.136718750000 0.000978 0.000978 0.999999
132.149810791016 58.527442932129 -134.136718750000 0.000978 0.000978 0.999999
124.271408081055 57.232162475586 -134.136718750000 0.000978 0.000978 0.999999
122.856880187988 62.958160400391 -134.136718750000 0.000978 0.000978 0.999999
126.054908752441 36.626647949219 -134.136718750000 0.000978 0.000978 0.999999
132.629058837891 48.730758666992 -134.136718750000 0.000978 0.000978 0.999999
121.102355957031 63.896392822266 -134.136718750000 0.000978 0.000978 0.999999
129.528213500977 112.380989074707 -134.136718750000 0.000978 0.000978 0.999999
131.976882934570 110.690666198730 -134.136718750000 0.000978 0.000978 0.999999
128.878738403320 132.110000610352 -134.136718750000 0.000978 0.000978 0.999999
128.803344726563 95.791221618652 -134.136718750000 0.000978 0.000978 0.999999
132.310104370117 77.975112915039 -134.136718750000 0.000978 0.000978 0.999999
126.140937805176 116.522682189941 -134.136718750000 0.000978 0.000978 0.999999
132.077209472656 117.687034606934 -134.136718750000 0.000978 0.000978 0.999999
131.858444213867 82.885353088379 -134.136718750000 0.000978 0.000978 0.999999
125.854049682617 73.131988525391 -134.136718750000 0.000978 0.000978 0.999999
132.928680419922 109.163284301758 -134.136718750000 0.000978 0.000978 0.999999
151.603088378906 -257.374359130859 -134.136734008789 0.000978 0.000978 0.999999
153.216567993164 -269.888305664063 -134.136734008789 0.000978 0.000978 0.999999
141.738479614258 -230.823562622070 -134.136734008789 0.000978 0.000978 0.999999
123.544876098633 -231.953109741211 -134.136734008789 0.000978 0.000978 0.999999
133.383865356445 -153.199615478516 -134.136718750000 0.000978 0.000978 0.999999
136.512420654297 -189.364349365234 -134.136734008789 0.000978 0.000978 0.999999
146.575866699219 -216.124435424805 -134.136734008789 0.000978 0.000978 0.999999
134.150573730469 -199.871368408203 -134.136718750000 0.000978 0.000978 0.999999
128.581268310547 -164.747741699219 -134.136718750000 0.000978 0.000978 0.999999
121.740997314453 -198.225051879883 -134.136734008789 0.000978 0.000978 0.999999
138.184753417969 -179.041824340820 -134.136734008789 0.000978 0.000978 0.999999
132.558013916016 -216.735076904297 -134.136718750000 0.000978 0.000978 0.999999
132.550292968750 -225.065155029297 -134.136734008789 0.000978 0.000978 0.999999
126.032150268555 -112.123558044434 -134.136718750000 0.000978 0.000978 0.999999
127.299430847168 -194.060562133789 -134.136734008789 0.000978 0.000978 0.999999
128.273300170898 -131.624038696289 -134.136718750000 0.000978 0.000978 0.999999
136.902191162109 -210.527130126953 -134.136734008789 0.000978 0.000978 0.999999
119.879455566406 -229.708999633789 -134.136734008789 0.000978 0.000978 0.999999
124.804412841797 -199.623168945313 -134.136734008789 0.000978 0.000978 0.999999
133.573806762695 -156.157714843750 -134.136718750000 0.000978 0.000978 0.999999
128.564575195313 -159.934692382813 -134.136718750000 0.000978 0.000978 0.999999
138.265686035156 -222.579803466797 -134.136734008789 0.000978 0.000978 0.999999
139.805892944336 -180.005981445313 -134.136734008789 0.000978 0.000978 0.999999
133.198913574219 -134.742538452148 -134.136718750000 0.000978 0.000978 0.999999
124.173606872559 -180.835449218750 -134.136734008789 0.000978 0.000978 0.999999
134.934356689453 -148.580047607422 -134.136718750000 0.000978 0.000978 0.999999
132.626251220703 -162.742156982422 -134.136718750000 0.000978 0.000978 0.999999
128.175827026367 -221.802719116211 -134.136734008789 0.000978 0.000978 0.999999
134.115570068359 -141.902618408203 -134.136718750000 0.000978 0.000978 0.999999
119.274078369141 -231.804916381836 -134.136734008789 0.000978 0.000978 0.999999
126.761268615723 -128.430480957031 -134.136718750000 0.000978 0.000978 0.999999
129.459411621094 -101.323699951172 -134.136718750000 0.000978 0.000978 0.999999
137.024566650391 -145.466308593750 -134.136718750000 0.000978 0.000978 0.999999
127.124435424805 -153.375671386719 -134.136718750000 0.000978 0.000978 0.999999
132.012191772461 -177.852890014648 -134.136718750000 0.000978 0.000978 0.999999
118.909591674805 -187.101760864258 -134.136734008789 0.000978 0.000978 0.999999
123.324005126953 -68.284179687500 -134.136718750000 0.000978 0.000978 0.999999
118.604919433594 -156.684051513672 -134.136734008789 0.000978 0.000978 0.999999
125.071807861328 -95.164016723633 -134.136718750000 0.000978 0.000978 0.999999
120.945549011230 -98.918228149414 -134.136718750000 0.000978 0.000978 0.999999
122.171203613281 -61.991378784180 -134.136718750000 0.000978 0.000978 0.999999
124.000854492188 -125.422538757324 -134.136718750000 0.000978 0.000978 0.999999
125.263069152832 -82.661422729492 -134.136718750000 0.000978 0.000978 0.999999
125.379219055176 -107.924758911133 -134.136718750000 0.000978 0.000978 0.999999
124.578544616699 -132.405471801758 -134.136718750000 0.000978 0.000978 0.999999
119.175148010254 -43.671863555908 -134.136718750000 0.000978 0.000978 0.999999
119.556755065918 -147.110000610352 -134.136734008789 0.000978 0.000978 0.999999
120.811592102051 -88.137939453125 -134.136718750000 0.000978 0.000978 0.999999
124.949676513672 -93.213912963867 -134.136718750000 0.000978 0.000978 0.999999
121.348945617676 -35.252532958984 -134.136718750000 0.000978 0.000978 0.999999
127.656272888184 -57.076171875000 -134.136718750000 0.000978 0.000978 0.999999
124.314224243164 -33.008167266846 -134.136718750000 0.000978 0.000978 0.999999
109.454429626465 -197.526214599609 -134.136734008789 0.000978 0.000978 0.999999
114.238845825195 -216.754226684570 -134.136734008789 0.000978 0.000978 0.999999
113.494300842285 -225.913330078125 -134.136734008789 0.000978 0.000978 0.999999
117.911094665527 -236.668304443359 -134.136734008789 0.000978 0.000978 0.999999
119.818519592285 -250.081756591797 -134.136734008789 0.000978 0.000978 0.999999
124.880104064941 -253.409576416016 -134.136734008789 0.000978 0.000978 0.999999
135.232009887695 -242.923980712891 -134.136734008789 0.000978 0.000978 0.999999
139.113449096680 -236.918228149414 -134.136734008789 0.000978 0.000978 0.999999
119.335449218750 -237.896240234375 -134.136734008789 0.000978 0.000978 0.999999
122.500740051270 -240.588348388672 -134.136734008789 0.000978 0.000978 0.999999
127.306709289551 -241.880462646484 -134.136734008789 0.000978 0.000978 0.999999
142.913009643555 -307.144866943359 -134.136734008789 0.000978 0.000978 0.999999
138.365020751953 -359.989074707031 -134.136734008789 0.000978 0.000978 0.999999
135.272125244141 -327.185424804688 -134.136734008789 0.000978 0.000978 0.999999
122.624267578125 -284.376464843750 -134.136734008789 0.000978 0.000978 0.999999
144.727386474609 -346.793182373047 -134.136734008789 0.000978 0.000978 0.999999
140.726196289063 -378.924682617188 -134.136734008789 0.000978 0.000978 0.999999
127.756538391113 -288.370086669922 -134.136734008789 0.000978 0.000978 0.999999
143.959976196289 -374.440490722656 -134.136734008789 0.000978 0.000978 0.999999
131.126205444336 -287.101531982422 -134.136734008789 0.000978 0.000978 0.999999
136.653656005859 -298.270751953125 -134.136734008789 0.000978 0.000978 0.999999
133.526214599609 -267.514984130859 -134.136734008789 0.000978 0.000978 0.999999
143.770751953125 -261.907165527344 -134.136734008789 0.000978 0.000978 0.999999
139.791030883789 -273.166534423828 -134.136734008789 0.000978 0.000978 0.999999
139.373016357422 -348.121429443359 -134.136734008789 0.000978 0.000978 0.999999
143.281051635742 -318.194976806641 -134.136734008789 0.000978 0.000978 0.999999
143.398239135742 -282.548217773438 -134.136734008789 0.000978 0.000978 0.999999
120.652076721191 -269.662719726563 -134.136734008789 0.000978 0.000978 0.999999
134.777709960938 -291.954071044922 -134.136734008789 0.000978 0.000978 0.999999
145.227874755859 -248.871520996094 -134.136734008789 0.000978 0.000978 0.999999
138.484619140625 -344.836547851563 -134.136734008789 0.000978 0.000978 0.999999
143.855667114258 -334.228912353516 -134.136734008789 0.000978 0.000978 0.999999
141.963180541992 -333.352874755859 -134.136734008789 0.000978 0.000978 0.999999
135.058197021484 -301.976379394531 -134.136734008789 0.000978 0.000978 0.999999
143.244308471680 -393.600952148438 -134.136734008789 0.000978 0.000978 0.999999
141.288742065430 -288.691192626953 -134.136734008789 0.000978 0.000978 0.999999
128.030227661133 -298.681213378906 -134.136734008789 0.000978 0.000978 0.999999
138.230667114258 -243.417449951172 -134.136734008789 0.000978 0.000978 0.999999
132.760635375977 -302.884735107422 -134.136734008789 0.000978 0.000978 0.999999
132.848388671875 -307.937530517578 -134.136734008789 0.000978 0.000978 0.999999
143.360305786133 -319.853515625000 -134.136734008789 0.000978 0.000978 0.999999
142.487030029297 -255.084945678711 -134.136734008789 0.000978 0.000978 0.999999
139.693023681641 -294.470367431641 -134.136734008789 0.000978 0.000978 0.999999
138.194274902344 -274.285522460938 -134.136734008789 0.000978 0.000978 0.999999
141.203247070313 -241.798431396484 -134.136734008789 0.000978 0.000978 0.999999
147.212371826172 -268.278869628906 -134.136734008789 0.000978 0.000978 0.999999
145.659133911133 -347.705139160156 -134.136734008789 0.000978 0.000978 0.999999
152.101272583008 -288.623931884766 -134.136734008789 0.000978 0.000978 0.999999
157.557495117188 -306.871246337891 -134.136734008789 0.000978 0.000978 0.999999
151.980850219727 -323.320922851563 -134.136734008789 0.000978 0.000978 0.999999
151.673156738281 -328.744506835938 -134.136734008789 0.000978 0.000978 0.999999
154.834930419922 -355.941711425781 -134.136734008789 0.000978 0.000978 0.999999
150.200225830078 -351.517395019531 -134.136734008789 0.000978 0.000978 0.999999
