//X Y Z Nx Ny Nz
612
140.946578979492 259.171813964844 -48.061195373535 -0.990125 0.140185 0.001104
134.108230590820 210.514511108398 -52.268348693848 -0.990125 0.140185 0.001104
131.412719726563 191.334960937500 -57.223564147949 -0.990125 0.140185 0.001104
138.853713989258 244.280334472656 -47.073501586914 -0.990125 0.140185 0.001104
127.734405517578 165.162368774414 -55.958896636963 -0.990125 0.140185 0.001104
140.674545288086 257.236206054688 -50.288917541504 -0.990125 0.140185 0.001104
155.400421142578 361.905273437500 -64.647018432617 -0.986571 0.138570 -0.086458
130.661102294922 185.808395385742 -64.754257202148 -0.986571 0.138570 -0.086458
141.172378540039 260.365386962891 -65.035804748535 -0.956405 0.133237 -0.259878
132.462921142578 197.613265991211 -65.441497802734 -0.956405 0.133237 -0.259878
157.136428833008 371.981719970703 -65.820838928223 -0.897535 0.125796 -0.422619
144.246383666992 280.252716064453 -65.824295043945 -0.897535 0.125796 -0.422619
151.023666381836 326.622253417969 -66.241455078125 -0.812290 0.112696 -0.572262
139.342315673828 242.986267089844 -66.344581604004 -0.812290 0.112696 -0.572262
142.291366577148 261.274475097656 -66.735923767090 -0.700729 0.098425 -0.706605
129.474258422852 167.217407226563 -67.024291992188 -0.569077 0.078839 -0.818496
136.319992065430 215.353958129883 -67.076263427734 -0.417579 0.058110 -0.906781
142.031036376953 253.622497558594 -67.229888916016 -0.417579 0.058110 -0.906781
161.185012817383 387.204986572266 -67.356086730957 -0.256506 0.035592 -0.965887
133.401626586914 189.431259155273 -67.359252929688 -0.256506 0.035592 -0.965887
157.036117553711 355.268157958984 -67.431785583496 -0.086670 0.011770 -0.996168
137.892623901367 218.722167968750 -67.435844421387 -0.086670 0.011770 -0.996168
140.313919067383 212.330383300781 -67.470390319824 0.000978 0.000978 -0.999999
138.391403198242 211.223007202148 -67.470390319824 0.000978 0.000978 -0.999999
139.210723876953 222.901550292969 -67.470390319824 0.000978 0.000978 -0.999999
135.078308105469 186.544509887695 -67.470390319824 0.000978 0.000978 -0.999999
139.635665893555 216.860824584961 -67.470390319824 0.000978 0.000978 -0.999999
138.596160888672 220.807434082031 -67.470390319824 0.000978 0.000978 -0.999999
152.836883544922 309.051208496094 -67.470382690430 0.000978 0.000978 -0.999999
166.375823974609 394.040405273438 -67.470382690430 0.000978 0.000978 -0.999999
154.511734008789 310.595703125000 -67.470382690430 0.000978 0.000978 -0.999999
150.900421142578 292.772583007813 -67.470382690430 0.000978 0.000978 -0.999999
151.025970458984 291.708496093750 -67.470382690430 0.000978 0.000978 -0.999999
165.142471313477 381.777496337891 -67.470382690430 0.000978 0.000978 -0.999999
160.879226684570 364.860168457031 -67.470382690430 0.000978 0.000978 -0.999999
162.463180541992 360.827667236328 -67.456428527832 0.086670 -0.011770 -0.996168
142.915298461914 220.184722900391 -67.437522888184 0.086670 -0.011770 -0.996168
161.473480224609 348.913604736328 -67.339950561523 0.256506 -0.035592 -0.965887
152.358673095703 283.527038574219 -67.320137023926 0.256506 -0.035592 -0.965887
165.950973510742 379.269134521484 -67.279769897461 0.417579 -0.058110 -0.906781
148.989562988281 255.498245239258 -67.079673767090 0.417579 -0.058110 -0.906781
163.613403320313 357.655487060547 -66.900421142578 0.569077 -0.078839 -0.818496
155.209732055664 296.942810058594 -66.810997009277 0.569077 -0.078839 -0.818496
149.701721191406 257.223754882813 -66.755783081055 0.700729 -0.098425 -0.706605
138.896484375000 178.565109252930 -66.508712768555 0.700729 -0.098425 -0.706605
162.088088989258 341.631378173828 -66.168106079102 0.812290 -0.112696 -0.572262
167.656951904297 380.285247802734 -65.975196838379 0.812290 -0.112696 -0.572262
159.956848144531 324.816101074219 -65.774665832520 0.897535 -0.125796 -0.422619
141.667251586914 194.323913574219 -65.668724060059 0.897535 -0.125796 -0.422619
168.286972045898 381.961853027344 -64.639053344727 0.986571 -0.138570 -0.086458
161.143569946289 331.119079589844 -64.615402221680 0.986571 -0.138570 -0.086458
167.494720458984 376.218750000000 -54.605175018311 0.990125 -0.140185 0.001104
169.595062255859 391.163421630859 -55.745700836182 0.990125 -0.140185 0.001104
170.882781982422 400.325988769531 -47.482345581055 0.990125 -0.140185 0.001104
168.623062133789 384.247314453125 -45.721675872803 0.990125 -0.140185 0.001104
146.657577514648 227.954742431641 -47.085018157959 0.990125 -0.140185 0.001104
141.057128906250 188.105407714844 -46.681983947754 0.990125 -0.140185 0.001104
167.064712524414 373.158996582031 -49.671150207520 0.990125 -0.140185 0.001104
147.254180908203 232.199737548828 -46.064117431641 0.990125 -0.140185 0.001104
168.473464965820 383.182891845703 -57.366317749023 0.990125 -0.140185 0.001104
171.036849975586 401.422332763672 -51.567474365234 0.990125 -0.140185 0.001104
160.048095703125 323.233184814453 -50.256210327148 0.990125 -0.140185 0.001104
164.058044433594 351.765502929688 -51.053100585938 0.990125 -0.140185 0.001104
164.507568359375 354.963989257813 -56.751075744629 0.990125 -0.140185 0.001104
163.856704711914 350.332885742188 -48.875282287598 0.990125 -0.140185 0.001104
166.586090087891 369.753448486328 -48.398380279541 0.990125 -0.140185 0.001104
167.396377563477 375.518981933594 -56.797027587891 0.990125 -0.140185 0.001104
165.044189453125 358.782226562500 -48.919811248779 0.990125 -0.140185 0.001104
163.060546875000 344.667968750000 -53.094097137451 0.990125 -0.140185 0.001104
172.160202026367 409.415283203125 -53.041469573975 0.990125 -0.140185 0.001104
165.839004516602 364.437622070313 -52.094268798828 0.990125 -0.140185 0.001104
169.165130615234 388.104339599609 -54.322372436523 0.990125 -0.140185 0.001104
168.436080932617 382.916839599609 -50.489360809326 0.990125 -0.140185 0.001104
145.448806762695 219.353881835938 -48.855907440186 0.990125 -0.140185 0.001104
166.494171142578 369.099426269531 -60.080123901367 0.990125 -0.140185 0.001104
159.193130493164 317.149841308594 -55.992347717285 0.990125 -0.140185 0.001104
151.887847900391 265.170043945313 -47.323493957520 0.990125 -0.140185 0.001104
165.832458496094 364.391113281250 -51.155643463135 0.990125 -0.140185 0.001104
151.268615722656 260.763916015625 -45.645366668701 0.990125 -0.140185 0.001104
165.472595214844 361.830535888672 -58.662708282471 0.990125 -0.140185 0.001104
149.659896850586 249.317352294922 -50.639923095703 0.990125 -0.140185 0.001104
171.681365966797 406.008209228516 -52.631824493408 0.990125 -0.140185 0.001104
145.846984863281 222.187072753906 -49.593559265137 0.990125 -0.140185 0.001104
143.291152954102 204.001403808594 -62.421218872070 0.990125 -0.140185 0.001104
142.854995727539 200.897918701172 -62.625526428223 0.990125 -0.140185 0.001104
154.634948730469 284.716674804688 -61.303916931152 0.990125 -0.140185 0.001104
144.157897949219 210.168548583984 -50.168170928955 0.990125 -0.140185 0.001104
150.996322631836 258.826507568359 -55.821456909180 0.990125 -0.140185 0.001104
167.431289672852 375.767395019531 -62.990043640137 0.990125 -0.140185 0.001104
138.703796386719 171.360610961914 -47.621719360352 0.990125 -0.140185 0.001104
152.375213623047 268.637878417969 -62.446262359619 0.990125 -0.140185 0.001104
140.806762695313 186.323989868164 -56.862934112549 0.990125 -0.140185 0.001104
145.713531494141 221.237487792969 -55.626941680908 0.990125 -0.140185 0.001104
138.051010131836 166.715850830078 -53.001461029053 0.990125 -0.140185 0.001104
156.733215332031 299.646606445313 -59.107112884521 0.990125 -0.140185 0.001104
154.932113647461 286.831115722656 -58.176147460938 0.990125 -0.140185 0.001104
145.642547607422 220.732360839844 -57.417922973633 0.990125 -0.140185 0.001104
145.230682373047 217.801864624023 -62.692581176758 0.990125 -0.140185 0.001104
150.044403076172 252.053192138672 -60.254470825195 0.990125 -0.140185 0.001104
146.489883422852 226.761505126953 -54.345352172852 0.990125 -0.140185 0.001104
148.147430419922 238.555572509766 -52.264442443848 0.990125 -0.140185 0.001104
153.325225830078 275.397521972656 -64.076164245605 0.990125 -0.140185 0.001104
140.306015014648 182.761016845703 -64.088691711426 0.990125 -0.140185 0.001104
149.658859252930 249.309906005859 -63.713329315186 0.990125 -0.140185 0.001104
157.826293945313 307.424255371094 -58.803791046143 0.990125 -0.140185 0.001104
141.293609619141 189.788085937500 -62.865859985352 0.990125 -0.140185 0.001104
160.748199462891 328.214782714844 -58.123458862305 0.990125 -0.140185 0.001104
154.605300903320 284.505737304688 -60.642047882080 0.990125 -0.140185 0.001104
163.359390258789 346.794311523438 -62.221679687500 0.990125 -0.140185 0.001104
138.381347656250 169.066329956055 -61.967647552490 0.990125 -0.140185 0.001104
151.343688964844 261.298156738281 -63.157993316650 0.990125 -0.140185 0.001104
156.685638427734 299.308105468750 -56.609020233154 0.990125 -0.140185 0.001104
143.091690063477 202.582153320313 -59.615528106689 0.990125 -0.140185 0.001104
149.579879760742 248.748031616211 -56.094573974609 0.990125 -0.140185 0.001104
139.755798339844 178.845993041992 -58.844272613525 0.990125 -0.140185 0.001104
141.973419189453 194.630828857422 -45.461517333984 0.986571 -0.138570 0.086458
144.723785400391 214.458923339844 -45.050765991211 0.986571 -0.138570 0.086458
168.074661254883 381.081817626953 -44.736976623535 0.956405 -0.133237 0.259878
140.517395019531 185.270538330078 -44.597301483154 0.956405 -0.133237 0.259878
163.860549926758 352.728454589844 -44.125518798828 0.897535 -0.125796 0.422619
142.509643554688 200.101074218750 -44.336772918701 0.897535 -0.125796 0.422619
170.489089965820 401.061859130859 -43.841339111328 0.812290 -0.112696 0.572262
160.782516479492 333.106781005859 -43.620552062988 0.812290 -0.112696 0.572262
163.943206787109 357.422119140625 -43.342872619629 0.700729 -0.098425 0.706605
141.704071044922 198.838546752930 -43.390754699707 0.700729 -0.098425 0.706605
144.423797607422 220.452407836914 -43.104827880859 0.569077 -0.078839 0.818496
155.327270507813 300.031311035156 -42.910251617432 0.569077 -0.078839 0.818496
160.704376220703 340.545623779297 -42.751281738281 0.417579 -0.058110 0.906781
153.648284912109 291.802612304688 -42.656284332275 0.417579 -0.058110 0.906781
168.175460815430 398.576660156250 -42.527046203613 0.256506 -0.035592 0.965887
166.464660644531 386.485412597656 -42.523998260498 0.256506 -0.035592 0.965887
141.524230957031 209.594421386719 -42.511631011963 0.086485 -0.011745 0.996184
157.540390014648 326.659545898438 -42.473865509033 0.086485 -0.011745 0.996184
145.038040161133 257.286712646484 -42.470386505127 0.000978 0.000978 0.999999
163.566375732422 388.080749511719 -42.470378875732 0.000978 0.000978 0.999999
167.605468750000 410.022247314453 -42.470378875732 0.000978 0.000978 0.999999
168.749038696289 411.604705810547 -42.470378875732 0.000978 0.000978 0.999999
155.034469604492 334.863006591797 -42.470382690430 0.000978 0.000978 0.999999
141.039062500000 235.354644775391 -42.470386505127 0.000978 0.000978 0.999999
167.193099975586 406.596466064453 -42.470378875732 0.000978 0.000978 0.999999
139.060714721680 207.262252807617 -42.470386505127 0.000978 0.000978 0.999999
133.429077148438 182.025207519531 -42.470390319824 0.000978 0.000978 0.999999
145.281127929688 252.163070678711 -42.470386505127 0.000978 0.000978 0.999999
140.466094970703 207.989898681641 -42.470386505127 0.000978 0.000978 0.999999
148.283706665039 270.583801269531 -42.470386505127 0.000978 0.000978 0.999999
142.763061523438 235.215988159180 -42.470386505127 0.000978 0.000978 0.999999
142.488159179688 239.506927490234 -42.470386505127 0.000978 0.000978 0.999999
165.611724853516 414.144561767578 12.517128944397 -0.086485 0.011745 0.996184
152.380432128906 321.911865234375 12.493856430054 -0.086485 0.011745 0.996184
158.122924804688 364.949890136719 12.432809829712 -0.256506 0.035592 0.965887
147.318359375000 288.497955322266 12.416893005371 -0.256506 0.035592 0.965887
142.919143676758 259.058135986328 12.346492767334 -0.417579 0.058110 0.906781
153.743804931641 338.987182617188 12.157794952393 -0.417579 0.058110 0.906781
147.330520629883 295.108459472656 12.001953125000 -0.569077 0.078839 0.818496
158.624008178711 377.870971679688 11.741815567017 -0.700729 0.098425 0.706605
132.622238159180 194.776535034180 11.474902153015 -0.700729 0.098425 0.706605
158.385803222656 380.342590332031 11.035159111023 -0.812290 0.112696 0.572262
161.573501586914 403.819274902344 10.800624847412 -0.897535 0.125796 0.422619
150.978469848633 328.739013671875 10.708923339844 -0.897535 0.125796 0.422619
158.916213989258 386.096771240234 10.366415023804 -0.956405 0.133237 0.259878
131.630432128906 192.464416503906 10.098369598389 -0.956405 0.133237 0.259878
155.956939697266 365.848052978516 9.733269691467 -0.986571 0.138570 0.086458
157.151947021484 374.467407226563 9.548241615295 -0.986571 0.138570 0.086458
146.277679443359 297.104614257813 -8.727901458740 -0.990125 0.140185 0.001104
153.196426391602 346.334045410156 -5.723885059357 -0.990125 0.140185 0.001104
155.573226928711 363.245880126953 5.427610874176 -0.990125 0.140185 0.001104
160.348541259766 397.223999023438 2.677579879761 -0.990125 0.140185 0.001104
162.982147216797 415.963104248047 -8.625158309937 -0.990125 0.140185 0.001104
151.957458496094 337.518371582031 1.612043380737 -0.990125 0.140185 0.001104
158.367919921875 383.131164550781 -4.854454040527 -0.990125 0.140185 0.001104
162.485809326172 412.431396484375 1.172858953476 -0.990125 0.140185 0.001104
146.719070434570 300.245269775391 -2.258348464966 -0.990125 0.140185 0.001104
148.862213134766 315.494567871094 -2.659946918488 -0.990125 0.140185 0.001104
141.979034423828 266.518127441406 -3.133783340454 -0.990125 0.140185 0.001104
134.007202148438 209.795654296875 -8.332684516907 -0.990125 0.140185 0.001104
134.563949584961 213.757110595703 -8.657214164734 -0.990125 0.140185 0.001104
135.419403076172 219.844009399414 -7.240094184875 -0.990125 0.140185 0.001104
158.733581542969 385.732940673828 4.932808876038 -0.990125 0.140185 0.001104
150.119293212891 324.439117431641 -2.214954853058 -0.990125 0.140185 0.001104
161.356903076172 404.398895263672 -1.708414077759 -0.990125 0.140185 0.001104
156.013763427734 366.380462646484 3.448882818222 -0.990125 0.140185 0.001104
140.583038330078 256.585083007813 -9.119630813599 -0.990125 0.140185 0.001104
149.695388793945 321.422851562500 -5.364826202393 -0.990125 0.140185 0.001104
144.452392578125 284.116973876953 -1.336945533752 -0.990125 0.140185 0.001104
156.488555908203 369.758789062500 -8.838370323181 -0.990125 0.140185 0.001104
140.892730712891 258.788696289063 -5.795944213867 -0.990125 0.140185 0.001104
148.548736572266 313.263977050781 -5.273999691010 -0.990125 0.140185 0.001104
158.201446533203 381.946655273438 6.841156959534 -0.990125 0.140185 0.001104
156.534652709961 370.086730957031 5.315260887146 -0.990125 0.140185 0.001104
160.786361694336 400.339202880859 -9.275529861450 -0.990125 0.140185 0.001104
157.368774414063 376.021789550781 1.457749605179 -0.990125 0.140185 0.001104
157.092849731445 374.058563232422 -3.715389728546 -0.990125 0.140185 0.001104
154.555206298828 356.002288818359 -5.811801433563 -0.990125 0.140185 0.001104
152.529220581055 341.586608886719 -6.066667556763 -0.990125 0.140185 0.001104
145.942199707031 294.717590332031 -7.430392742157 -0.990125 0.140185 0.001104
144.968093872070 287.786376953125 4.401553153992 -0.990125 0.140185 0.001104
149.060516357422 316.905517578125 5.531302452087 -0.990125 0.140185 0.001104
139.750671386719 250.662567138672 7.437063217163 -0.990125 0.140185 0.001104
143.449157714844 276.978576660156 6.245609760284 -0.990125 0.140185 0.001104
128.194152832031 168.433593750000 5.898903846741 -0.990125 0.140185 0.001104
143.581130981445 277.917602539063 0.832672119141 -0.990125 0.140185 0.001104
147.424972534180 305.268066406250 4.382713317871 -0.990125 0.140185 0.001104
154.235351562500 353.726348876953 6.630882263184 -0.990125 0.140185 0.001104
135.245040893555 218.603271484375 4.144488811493 -0.990125 0.140185 0.001104
138.766128540039 243.657165527344 5.458435535431 -0.990125 0.140185 0.001104
134.940444946289 216.436019897461 -3.878008842468 -0.990125 0.140185 0.001104
143.886428833008 280.089965820313 9.389709472656 -0.990125 0.140185 0.001104
129.677688598633 178.989517211914 6.657713890076 -0.990125 0.140185 0.001104
141.609954833984 263.892028808594 3.475469589233 -0.990125 0.140185 0.001104
131.218780517578 189.954986572266 0.465552330017 -0.990125 0.140185 0.001104
137.355148315430 233.617462158203 1.927096366882 -0.990125 0.140185 0.001104
149.199462890625 317.894104003906 9.368236541748 -0.990125 0.140185 0.001104
150.637084960938 328.123352050781 9.290929794312 -0.990125 0.140185 0.001104
146.334091186523 297.505981445313 6.216744422913 -0.990125 0.140185 0.001104
150.836395263672 329.541503906250 4.393624305725 -0.990125 0.140185 0.001104
137.601989746094 235.373901367188 -2.824087142944 -0.990125 0.140185 0.001104
133.749206542969 207.959884643555 3.661627292633 -0.990125 0.140185 0.001104
137.919036865234 237.629745483398 3.243297100067 -0.990125 0.140185 0.001104
137.608627319336 235.421112060547 7.833317279816 -0.990125 0.140185 0.001104
128.527145385742 170.803024291992 7.341270446777 -0.990125 0.140185 0.001104
136.905517578125 230.418167114258 3.774477005005 -0.990125 0.140185 0.001104
143.029815673828 273.994873046875 3.750941753387 -0.990125 0.140185 0.001104
133.980590820313 209.606292724609 0.401973724365 -0.990125 0.140185 0.001104
131.149719238281 189.463607788086 3.500473022461 -0.990125 0.140185 0.001104
128.623245239258 171.486801147461 1.729490280151 -0.990125 0.140185 0.001104
154.537643432617 355.877319335938 8.276112556458 -0.990125 0.140185 0.001104
128.496032714844 170.581588745117 9.220193862915 -0.990125 0.140185 0.001104
133.730728149414 207.828430175781 8.681694984436 -0.990125 0.140185 0.001104
136.285751342773 225.863296508789 -9.701075553894 -0.986571 0.138570 -0.086458
149.645935058594 320.685974121094 -10.021181106567 -0.956405 0.133237 -0.259878
150.087783813477 323.221252441406 -10.337329864502 -0.956405 0.133237 -0.259878
151.560806274414 332.974578857422 -10.622229576111 -0.897535 0.125796 -0.422619
139.963378906250 249.859588623047 -10.799824714661 -0.897535 0.125796 -0.422619
160.282623291016 393.196746826172 -11.103596687317 -0.812290 0.112696 -0.572262
149.663513183594 316.486938476563 -11.332331657410 -0.812290 0.112696 -0.572262
147.211334228516 296.386291503906 -11.721382141113 -0.700729 0.098425 -0.706605
139.648040771484 240.614257812500 -11.926184654236 -0.569077 0.078839 -0.818496
145.816284179688 281.842010498047 -12.146438598633 -0.417579 0.058110 -0.906781
144.061187744141 267.869567871094 -12.242735862732 -0.417579 0.058110 -0.906781
146.374984741211 282.030181884766 -12.348481178284 -0.256506 0.035592 -0.965887
136.967559814453 215.746505737305 -12.324105262756 -0.256506 0.035592 -0.965887
164.713134765625 409.938446044922 -12.431224822998 -0.086670 0.011770 -0.996168
145.072875976563 252.459320068359 -12.470387458801 0.000978 0.000978 -0.999999
137.084213256836 192.256561279297 -12.470390319824 0.000978 0.000978 -0.999999
138.090927124023 208.600524902344 -12.470388412476 0.000978 0.000978 -0.999999
133.869461059570 184.545227050781 -12.470389366150 0.000978 0.000978 -0.999999
141.255950927734 223.312881469727 -12.470388412476 0.000978 0.000978 -0.999999
134.644927978516 173.398117065430 -12.470391273499 0.000978 0.000978 -0.999999
144.235961914063 247.094329833984 -12.470387458801 0.000978 0.000978 -0.999999
169.351791381836 413.795623779297 -12.470379829407 0.000978 0.000978 -0.999999
157.420379638672 331.236480712891 -12.470383644104 0.000978 0.000978 -0.999999
164.528900146484 389.922271728516 -12.470380783081 0.000978 0.000978 -0.999999
144.415969848633 237.189331054688 -12.470387458801 0.000978 0.000978 -0.999999
160.822952270508 361.972595214844 -12.470382690430 0.000978 0.000978 -0.999999
156.036468505859 324.533569335938 -12.470383644104 0.000978 0.000978 -0.999999
157.538116455078 325.519073486328 -12.453202247620 0.086670 -0.011770 -0.996168
137.781433105469 183.781997680664 -12.439067840576 0.086670 -0.011770 -0.996168
162.110885620117 354.866638183594 -12.392829895020 0.256506 -0.035592 -0.965887
156.066406250000 309.500885009766 -12.304913520813 0.256506 -0.035592 -0.965887
139.274642944336 188.699249267578 -12.230598449707 0.417579 -0.058110 -0.906781
168.967193603516 397.092010498047 -12.031238555908 0.569077 -0.078839 -0.818496
147.010467529297 238.959136962891 -11.845813751221 0.569077 -0.078839 -0.818496
152.558853149414 276.491577148438 -11.608015060425 0.700729 -0.098425 -0.706605
140.399200439453 188.663330078125 -11.426033973694 0.700729 -0.098425 -0.706605
147.400146484375 237.942321777344 -11.331328392029 0.812290 -0.112696 -0.572262
137.454101562500 165.404556274414 -10.979942321777 0.812290 -0.112696 -0.572262
171.886642456055 409.911590576172 -10.837493896484 0.897535 -0.125796 -0.422619
137.545761108398 164.598022460938 -10.549350738525 0.897535 -0.125796 -0.422619
145.176849365234 218.718505859375 -10.496279716492 0.956405 -0.133237 -0.259878
156.602218627930 298.927642822266 -9.809310913086 0.986571 -0.138570 -0.086458
143.818130493164 207.765274047852 -9.493194580078 0.986571 -0.138570 -0.086458
157.189620971680 302.894104003906 2.348658561707 0.990125 -0.140185 0.001104
167.218200683594 374.251220703125 2.680307388306 0.990125 -0.140185 0.001104
139.798629760742 179.150802612305 8.532514572144 0.990125 -0.140185 0.001104
151.976455688477 265.800537109375 3.980868816376 0.990125 -0.140185 0.001104
158.795806884766 314.322753906250 -0.054611682892 0.990125 -0.140185 0.001104
169.215393066406 388.461944580078 4.710192680359 0.990125 -0.140185 0.001104
156.399749755859 297.273864746094 3.730313777924 0.990125 -0.140185 0.001104
159.097839355469 316.471832275391 5.287227630615 0.990125 -0.140185 0.001104
155.198944091797 288.729705810547 7.709530830383 0.990125 -0.140185 0.001104
139.431137084961 176.535888671875 9.003331184387 0.990125 -0.140185 0.001104
171.076248168945 401.702575683594 -1.314290523529 0.990125 -0.140185 0.001104
156.549713134766 298.341003417969 7.730863571167 0.990125 -0.140185 0.001104
160.965057373047 329.757720947266 -2.426934242249 0.990125 -0.140185 0.001104
170.648284912109 398.657470703125 -4.488998413086 0.990125 -0.140185 0.001104
160.834777832031 328.830688476563 7.339928627014 0.990125 -0.140185 0.001104
164.311172485352 353.566589355469 3.765788555145 0.990125 -0.140185 0.001104
152.585891723633 270.136871337891 3.251356124878 0.990125 -0.140185 0.001104
159.258575439453 317.615478515625 6.789341926575 0.990125 -0.140185 0.001104
147.784835815430 235.975631713867 9.006664276123 0.990125 -0.140185 0.001104
159.657394409180 320.453216552734 8.229711532593 0.990125 -0.140185 0.001104
171.293945312500 403.251617431641 -2.761272430420 0.990125 -0.140185 0.001104
160.333541870117 325.264282226563 -2.497480392456 0.990125 -0.140185 0.001104
155.306198120117 289.492858886719 8.876856803894 0.990125 -0.140185 0.001104
157.456695556641 304.794494628906 7.421352386475 0.990125 -0.140185 0.001104
146.628692626953 227.749145507813 5.581373214722 0.990125 -0.140185 0.001104
156.604690551758 298.732086181641 0.556149482727 0.990125 -0.140185 0.001104
149.626266479492 249.078079223633 3.898035049438 0.990125 -0.140185 0.001104
150.272308349609 253.674911499023 5.363447189331 0.990125 -0.140185 0.001104
170.058929443359 394.463989257813 8.394025802612 0.990125 -0.140185 0.001104
161.579910278320 334.132690429688 7.417603492737 0.990125 -0.140185 0.001104
157.377441406250 304.230529785156 0.356868743896 0.990125 -0.140185 0.001104
152.935974121094 272.627807617188 5.362607002258 0.990125 -0.140185 0.001104
139.784561157227 179.050628662109 6.480330467224 0.990125 -0.140185 0.001104
146.982513427734 230.266708374023 1.540612220764 0.990125 -0.140185 0.001104
139.354232788086 175.988693237305 -2.360563278198 0.990125 -0.140185 0.001104
160.578491210938 327.007171630859 -6.236483573914 0.990125 -0.140185 0.001104
160.679565429688 327.726379394531 -7.479996204376 0.990125 -0.140185 0.001104
159.729980468750 320.969787597656 -6.602851867676 0.990125 -0.140185 0.001104
154.552474975586 284.129791259766 -0.361829757690 0.990125 -0.140185 0.001104
145.155426025391 217.266372680664 -7.989035606384 0.990125 -0.140185 0.001104
142.785659790039 200.404632568359 3.561568260193 0.990125 -0.140185 0.001104
139.326843261719 175.793869018555 -6.635302543640 0.990125 -0.140185 0.001104
154.421340942383 283.196746826172 -9.304930686951 0.990125 -0.140185 0.001104
144.920257568359 215.593063354492 -3.617097377777 0.990125 -0.140185 0.001104
139.373062133789 176.122680664063 -4.199557304382 0.990125 -0.140185 0.001104
168.987426757813 386.839813232422 -8.814566612244 0.990125 -0.140185 0.001104
145.580963134766 220.294189453125 2.623805999756 0.990125 -0.140185 0.001104
167.977020263672 379.650451660156 -7.475384712219 0.990125 -0.140185 0.001104
143.107101440430 202.691787719727 1.365971565247 0.990125 -0.140185 0.001104
148.167861938477 238.700973510742 -9.030569076538 0.990125 -0.140185 0.001104
140.383804321289 183.314468383789 2.280174255371 0.990125 -0.140185 0.001104
152.445266723633 269.136260986328 -7.849728107452 0.990125 -0.140185 0.001104
137.683425903320 164.100280761719 0.753929138184 0.990125 -0.140185 0.001104
153.993133544922 280.149871826172 -2.572206497192 0.990125 -0.140185 0.001104
154.491058349609 283.692810058594 -6.054720878601 0.990125 -0.140185 0.001104
139.201370239258 174.901077270508 0.118926048279 0.990125 -0.140185 0.001104
147.087738037109 231.015441894531 -8.270233154297 0.990125 -0.140185 0.001104
154.186813354492 281.528076171875 -1.743998050690 0.990125 -0.140185 0.001104
147.832183837891 236.312484741211 0.149633407593 0.990125 -0.140185 0.001104
169.337051391602 389.327514648438 -8.264481544495 0.990125 -0.140185 0.001104
154.968154907227 287.087585449219 -2.293382644653 0.990125 -0.140185 0.001104
146.719528198242 228.395538330078 1.637200355530 0.990125 -0.140185 0.001104
147.465560913086 233.703857421875 -6.555066108704 0.990125 -0.140185 0.001104
142.561309814453 198.808242797852 -6.275375366211 0.990125 -0.140185 0.001104
162.404678344727 340.175048828125 9.806094169617 0.986571 -0.138570 0.086458
139.444061279297 177.065551757813 10.107781410217 0.956405 -0.133237 0.259878
163.138732910156 347.268829345703 10.777925491333 0.897535 -0.125796 0.422619
150.812850952148 260.319946289063 11.003056526184 0.897535 -0.125796 0.422619
151.248931884766 263.760101318359 11.078952789307 0.812290 -0.112696 0.572262
158.076828002930 313.850738525391 11.378643035889 0.812290 -0.112696 0.572262
167.855056762695 384.734954833984 11.584537506104 0.700729 -0.098425 0.706605
146.247360229492 231.788040161133 11.695855140686 0.700729 -0.098425 0.706605
144.224945068359 218.844711303711 11.876397132874 0.569077 -0.078839 0.818496
146.673233032227 237.178680419922 11.965398788452 0.569077 -0.078839 0.818496
167.734359741211 389.815765380859 12.199997901917 0.417579 -0.058110 0.906781
136.810150146484 170.696197509766 12.259534835815 0.417579 -0.058110 0.906781
161.377716064453 348.102905273438 12.394426345825 0.256506 -0.035592 0.965887
142.557769775391 216.409790039063 12.477140426636 0.256506 -0.035592 0.965887
146.710800170898 247.218902587891 12.497129440308 0.086485 -0.011745 0.996184
144.160079956055 231.468292236328 12.526307106018 0.086485 -0.011745 0.996184
158.622711181641 362.873931884766 12.529618263245 0.000978 0.000978 0.999999
151.725112915039 314.172058105469 12.529616355896 0.000978 0.000978 0.999999
162.312622070313 385.012817382813 12.529619216919 0.000978 0.000978 0.999999
159.938003540039 369.364532470703 12.529618263245 0.000978 0.000978 0.999999
142.824920654297 246.517700195313 12.529613494873 0.000978 0.000978 0.999999
160.815902709961 368.018280029297 12.529618263245 0.000978 0.000978 0.999999
163.472717285156 393.546569824219 12.529619216919 0.000978 0.000978 0.999999
148.065246582031 269.936889648438 12.529613494873 0.000978 0.000978 0.999999
141.835586547852 226.481887817383 12.529611587524 0.000978 0.000978 0.999999
155.022720336914 319.603515625000 12.529615402222 0.000978 0.000978 0.999999
139.443557739258 199.364517211914 12.529610633850 0.000978 0.000978 0.999999
156.135131835938 325.309112548828 12.529616355896 0.000978 0.000978 0.999999
145.906082153320 246.538528442383 12.529612541199 0.000978 0.000978 0.999999
140.659912109375 211.088241577148 12.529610633850 0.000978 0.000978 0.999999
152.820190429688 323.818725585938 67.508720397949 -0.086485 0.011745 0.996184
147.386688232422 286.795776367188 67.488784790039 -0.086485 0.011745 0.996184
155.322616577148 345.906890869141 67.399894714355 -0.256506 0.035592 0.965887
139.987030029297 238.017944335938 67.354042053223 -0.256506 0.035592 0.965887
145.136520385742 276.203704833984 67.257705688477 -0.417579 0.058110 0.906781
147.634490966797 294.801879882813 67.204216003418 -0.417579 0.058110 0.906781
148.362808227539 302.037994384766 67.042442321777 -0.569077 0.078839 0.818496
160.837463378906 394.373504638672 66.637016296387 -0.700729 0.098425 0.706605
148.514358520508 306.959289550781 66.599548339844 -0.700729 0.098425 0.706605
152.139709472656 334.203765869141 66.372192382813 -0.812290 0.112696 0.572262
128.426589965820 165.323211669922 66.402580261230 -0.812290 0.112696 0.572262
159.204696655273 386.580352783203 65.915245056152 -0.897535 0.125796 0.422619
139.684448242188 247.882598876953 65.856735229492 -0.897535 0.125796 0.422619
158.274627685547 381.607971191406 65.326835632324 -0.956405 0.133237 0.259878
144.127304077148 281.264221191406 65.160728454590 -0.956405 0.133237 0.259878
139.020385742188 245.255187988281 64.865371704102 -0.986571 0.138570 0.086458
152.708282470703 342.860717773438 58.054946899414 -0.990125 0.140185 0.001104
149.811798095703 322.251159667969 56.604515075684 -0.990125 0.140185 0.001104
158.573303222656 384.592498779297 58.983211517334 -0.990125 0.140185 0.001104
156.880813598633 372.549865722656 52.336097717285 -0.990125 0.140185 0.001104
156.713439941406 371.358856201172 57.142070770264 -0.990125 0.140185 0.001104
152.478012084961 341.222229003906 56.870796203613 -0.990125 0.140185 0.001104
162.751876831055 414.324615478516 57.153556823730 -0.990125 0.140185 0.001104
149.975509643555 323.416015625000 55.479961395264 -0.990125 0.140185 0.001104
145.696334838867 292.968078613281 52.524742126465 -0.990125 0.140185 0.001104
147.981506347656 309.227935791016 52.403728485107 -0.990125 0.140185 0.001104
162.345489501953 411.433074951172 49.117805480957 -0.990125 0.140185 0.001104
154.080383300781 352.623657226563 46.389545440674 -0.990125 0.140185 0.001104
149.741363525391 321.749969482422 46.404735565186 -0.990125 0.140185 0.001104
146.944183349609 301.847015380859 47.739994049072 -0.990125 0.140185 0.001104
157.840347290039 379.377197265625 47.480342864990 -0.990125 0.140185 0.001104
151.094421386719 331.377563476563 56.578777313232 -0.990125 0.140185 0.001104
142.487380981445 270.135253906250 50.570278167725 -0.990125 0.140185 0.001104
159.007873535156 387.684692382813 51.754940032959 -0.990125 0.140185 0.001104
160.343017578125 397.184661865234 58.374698638916 -0.990125 0.140185 0.001104
153.359252929688 347.492614746094 52.042980194092 -0.990125 0.140185 0.001104
159.190078735352 388.981140136719 50.974884033203 -0.990125 0.140185 0.001104
136.657653808594 228.654586791992 48.166633605957 -0.990125 0.140185 0.001104
154.206695556641 353.522491455078 58.422584533691 -0.990125 0.140185 0.001104
143.311401367188 275.998413085938 46.473300933838 -0.990125 0.140185 0.001104
156.208709716797 367.767517089844 58.506206512451 -0.990125 0.140185 0.001104
152.751113891602 343.165496826172 53.787052154541 -0.990125 0.140185 0.001104
129.195587158203 175.559219360352 46.090667724609 -0.990125 0.140185 0.001104
162.519332885742 412.669982910156 49.271034240723 -0.990125 0.140185 0.001104
133.169754028320 203.836822509766 47.298568725586 -0.990125 0.140185 0.001104
148.847991943359 315.393310546875 49.553527832031 -0.990125 0.140185 0.001104
156.161895751953 367.434448242188 47.834098815918 -0.990125 0.140185 0.001104
148.020904541016 309.508300781250 47.814979553223 -0.990125 0.140185 0.001104
154.790649414063 357.677490234375 59.828086853027 -0.990125 0.140185 0.001104
154.183578491211 353.357971191406 62.383037567139 -0.990125 0.140185 0.001104
144.361831665039 283.472656250000 58.883766174316 -0.990125 0.140185 0.001104
160.192260742188 396.111938476563 64.451522827148 -0.990125 0.140185 0.001104
137.162033081055 232.243408203125 57.945022583008 -0.990125 0.140185 0.001104
139.301086425781 247.463592529297 53.475898742676 -0.990125 0.140185 0.001104
135.923019409180 223.427413940430 57.100852966309 -0.990125 0.140185 0.001104
135.288543701172 218.912811279297 64.506172180176 -0.990125 0.140185 0.001104
129.012649536133 174.257568359375 57.232574462891 -0.990125 0.140185 0.001104
160.389068603516 397.512329101563 63.986042022705 -0.990125 0.140185 0.001104
142.808044433594 272.416870117188 57.790794372559 -0.990125 0.140185 0.001104
128.346374511719 169.516784667969 56.922657012939 -0.990125 0.140185 0.001104
140.452575683594 255.656829833984 61.046443939209 -0.990125 0.140185 0.001104
139.730453491211 250.518707275391 62.495685577393 -0.990125 0.140185 0.001104
151.739944458008 335.970642089844 64.247673034668 -0.990125 0.140185 0.001104
136.933441162109 230.616851806641 60.684913635254 -0.990125 0.140185 0.001104
133.694427490234 207.570159912109 52.541820526123 -0.990125 0.140185 0.001104
144.692047119141 285.822204589844 64.030456542969 -0.990125 0.140185 0.001104
155.644470214844 363.752746582031 61.761013031006 -0.990125 0.140185 0.001104
152.206970214844 339.293640136719 64.390098571777 -0.990125 0.140185 0.001104
129.880920410156 180.435623168945 59.333351135254 -0.990125 0.140185 0.001104
138.197616577148 239.612030029297 64.354095458984 -0.990125 0.140185 0.001104
146.625045776367 299.576232910156 62.017848968506 -0.990125 0.140185 0.001104
134.758651733398 215.142440795898 62.523300170898 -0.990125 0.140185 0.001104
139.275268554688 247.279922485352 57.285175323486 -0.990125 0.140185 0.001104
146.030654907227 295.346954345703 59.726974487305 -0.990125 0.140185 0.001104
145.162658691406 289.170776367188 59.884521484375 -0.990125 0.140185 0.001104
144.524566650391 284.630554199219 59.023593902588 -0.990125 0.140185 0.001104
132.187026977539 196.844360351563 54.373683929443 -0.990125 0.140185 0.001104
142.713455200195 271.743804931641 61.285842895508 -0.990125 0.140185 0.001104
157.572998046875 377.475036621094 63.591297149658 -0.990125 0.140185 0.001104
155.060989379883 359.601074218750 61.368133544922 -0.990125 0.140185 0.001104
139.426773071289 248.357849121094 57.551727294922 -0.990125 0.140185 0.001104
148.638885498047 313.805175781250 45.370029449463 -0.986571 0.138570 -0.086458
149.953979492188 323.034118652344 45.165733337402 -0.986571 0.138570 -0.086458
152.561126708984 340.886444091797 44.697193145752 -0.956405 0.133237 -0.259878
147.335586547852 303.699157714844 44.694259643555 -0.956405 0.133237 -0.259878
159.305435180664 387.867919921875 44.314315795898 -0.897535 0.125796 -0.422619
141.976272583008 263.713684082031 44.060375213623 -0.897535 0.125796 -0.422619
162.266586303711 407.733367919922 43.979866027832 -0.812290 0.112696 -0.572262
134.363327026367 207.878265380859 43.718914031982 -0.812290 0.112696 -0.572262
133.040557861328 197.643814086914 43.569171905518 -0.700729 0.098425 -0.706605
131.032089233398 181.537872314453 43.316589355469 -0.700729 0.098425 -0.706605
160.049560546875 386.707244873047 43.164340972900 -0.569077 0.078839 -0.818496
134.419265747070 202.373565673828 42.972846984863 -0.569077 0.078839 -0.818496
140.645751953125 245.863159179688 42.906204223633 -0.417579 0.058110 -0.906781
142.654281616211 258.146972656250 42.775943756104 -0.417579 0.058110 -0.906781
138.985336303711 227.485992431641 42.578258514404 -0.256506 0.035592 -0.965887
158.322586059570 362.439178466797 42.544067382813 -0.086670 0.011770 -0.996168
145.453216552734 271.221618652344 42.548362731934 -0.086670 0.011770 -0.996168
138.545730590820 212.370254516602 42.529613494873 0.000978 0.000978 -0.999999
154.488388061523 324.226104736328 42.529617309570 0.000978 0.000978 -0.999999
138.180557250977 203.390472412109 42.529609680176 0.000978 0.000978 -0.999999
151.591674804688 312.333679199219 42.529617309570 0.000978 0.000978 -0.999999
136.823440551758 204.170883178711 42.529609680176 0.000978 0.000978 -0.999999
135.229187011719 195.113754272461 42.529609680176 0.000978 0.000978 -0.999999
138.838745117188 206.915771484375 42.529613494873 0.000978 0.000978 -0.999999
147.940521240234 268.295104980469 42.529613494873 0.000978 0.000978 -0.999999
166.270278930664 394.738647460938 42.529621124268 0.000978 0.000978 -0.999999
168.181579589844 407.552001953125 42.529621124268 0.000978 0.000978 -0.999999
156.299804687500 330.223724365234 42.529617309570 0.000978 0.000978 -0.999999
161.426940917969 362.009948730469 42.529617309570 0.000978 0.000978 -0.999999
167.985214233398 408.554229736328 42.529621124268 0.000978 0.000978 -0.999999
155.056854248047 314.225708007813 42.529617309570 0.000978 0.000978 -0.999999
146.696929931641 248.785446166992 42.541858673096 0.086670 -0.011770 -0.996168
155.919906616211 311.949096679688 42.571838378906 0.086670 -0.011770 -0.996168
156.952331542969 317.643524169922 42.626495361328 0.256506 -0.035592 -0.965887
144.092117309570 226.579986572266 42.610015869141 0.256506 -0.035592 -0.965887
166.825668334961 384.246185302734 42.801113128662 0.417579 -0.058110 -0.906781
139.761627197266 191.354324340820 42.821949005127 0.417579 -0.058110 -0.906781
145.425430297852 229.437530517578 42.982994079590 0.569077 -0.078839 -0.818496
146.456283569336 234.559600830078 43.198673248291 0.569077 -0.078839 -0.818496
169.252410888672 394.110321044922 43.553703308105 0.700729 -0.098425 -0.706605
140.078933715820 187.064163208008 43.479385375977 0.700729 -0.098425 -0.706605
162.208755493164 342.696990966797 43.790725708008 0.812290 -0.112696 -0.572262
154.831817626953 289.205718994141 43.989814758301 0.812290 -0.112696 -0.572262
146.162506103516 227.307464599609 44.033340454102 0.897535 -0.125796 -0.422619
148.891677856445 246.086975097656 44.224239349365 0.897535 -0.125796 -0.422619
166.232879638672 368.129913330078 44.716705322266 0.956405 -0.133237 -0.259878
145.796615600586 222.480010986328 44.840496063232 0.956405 -0.133237 -0.259878
168.479766845703 383.419189453125 45.224857330322 0.986571 -0.138570 -0.086458
156.585632324219 298.641784667969 45.457523345947 0.986571 -0.138570 -0.086458
163.407943725586 347.139801025391 60.195938110352 0.990125 -0.140185 0.001104
156.111282348633 295.221313476563 56.580543518066 0.990125 -0.140185 0.001104
172.578384399414 412.390899658203 63.850589752197 0.990125 -0.140185 0.001104
144.256668090820 210.871383666992 61.963844299316 0.990125 -0.140185 0.001104
169.147323608398 387.977630615234 61.324218750000 0.990125 -0.140185 0.001104
170.009689331055 394.113647460938 49.021266937256 0.990125 -0.140185 0.001104
160.873641967773 329.107299804688 64.048095703125 0.990125 -0.140185 0.001104
154.739761352539 285.462463378906 62.534767150879 0.990125 -0.140185 0.001104
157.557525634766 305.511932373047 60.972778320313 0.990125 -0.140185 0.001104
169.212020874023 388.437896728516 48.341781616211 0.990125 -0.140185 0.001104
148.881103515625 243.775909423828 60.580093383789 0.990125 -0.140185 0.001104
155.589263916016 291.506958007813 57.354785919189 0.990125 -0.140185 0.001104
170.619659423828 398.453857421875 51.299365997314 0.990125 -0.140185 0.001104
162.235366821289 338.796478271484 51.801959991455 0.990125 -0.140185 0.001104
138.529129028320 170.117813110352 64.080352783203 0.990125 -0.140185 0.001104
141.746353149414 193.009536743164 63.367813110352 0.990125 -0.140185 0.001104
157.166183471680 302.727325439453 58.313796997070 0.990125 -0.140185 0.001104
172.157226562500 409.394104003906 53.566818237305 0.990125 -0.140185 0.001104
148.878967285156 243.760726928711 61.619377136230 0.990125 -0.140185 0.001104
166.675552368164 370.390014648438 56.110328674316 0.990125 -0.140185 0.001104
165.108291625977 359.238403320313 55.046829223633 0.990125 -0.140185 0.001104
160.828170776367 328.783691406250 63.719123840332 0.990125 -0.140185 0.001104
154.632217407227 284.697204589844 59.289203643799 0.990125 -0.140185 0.001104
165.770538330078 363.950531005859 61.601825714111 0.990125 -0.140185 0.001104
171.360168457031 403.722778320313 64.416976928711 0.990125 -0.140185 0.001104
159.426574707031 318.810852050781 53.910690307617 0.990125 -0.140185 0.001104
166.327682495117 367.914825439453 59.261146545410 0.990125 -0.140185 0.001104
170.837051391602 400.000640869141 60.845264434814 0.990125 -0.140185 0.001104
150.789718627930 257.356414794922 59.487506866455 0.990125 -0.140185 0.001104
171.236572265625 402.843383789063 55.985424041748 0.990125 -0.140185 0.001104
163.037124633789 344.501281738281 61.142704010010 0.990125 -0.140185 0.001104
167.485519409180 376.153228759766 58.824554443359 0.990125 -0.140185 0.001104
159.805923461914 321.510070800781 47.201438903809 0.990125 -0.140185 0.001104
139.790527343750 179.093078613281 56.221477508545 0.990125 -0.140185 0.001104
152.320541381836 268.248779296875 49.167739868164 0.990125 -0.140185 0.001104
163.054443359375 344.624542236328 46.222938537598 0.990125 -0.140185 0.001104
152.744903564453 271.268280029297 47.015987396240 0.990125 -0.140185 0.001104
146.742126464844 228.556274414063 57.419586181641 0.990125 -0.140185 0.001104
141.377059936523 190.381942749023 54.424575805664 0.990125 -0.140185 0.001104
141.987472534180 194.725158691406 47.679691314697 0.990125 -0.140185 0.001104
166.419342041016 368.567016601563 46.872406005859 0.990125 -0.140185 0.001104
141.102981567383 188.431671142578 59.052276611328 0.990125 -0.140185 0.001104
160.040679931641 323.180480957031 45.552009582520 0.990125 -0.140185 0.001104
146.567413330078 227.313201904297 45.836162567139 0.990125 -0.140185 0.001104
151.991867065430 265.910156250000 52.708724975586 0.990125 -0.140185 0.001104
165.201980590820 359.905059814453 46.022800445557 0.990125 -0.140185 0.001104
147.262710571289 232.260437011719 59.002624511719 0.990125 -0.140185 0.001104
145.167221069336 217.350250244141 49.753944396973 0.990125 -0.140185 0.001104
141.749221801758 193.029998779297 61.329772949219 0.990125 -0.140185 0.001104
138.526458740234 170.098861694336 57.249607086182 0.990125 -0.140185 0.001104
139.096267700195 174.153198242188 54.052215576172 0.990125 -0.140185 0.001104
144.731765747070 214.251831054688 46.815208435059 0.990125 -0.140185 0.001104
142.560836791992 198.804885864258 45.625728607178 0.990125 -0.140185 0.001104
144.730804443359 214.245071411133 52.540454864502 0.990125 -0.140185 0.001104
143.466033935547 205.245666503906 52.744667053223 0.990125 -0.140185 0.001104
144.569000244141 213.093734741211 57.339462280273 0.990125 -0.140185 0.001104
141.615112304688 192.075668334961 52.842060089111 0.990125 -0.140185 0.001104
140.138732910156 181.570739746094 47.082565307617 0.990125 -0.140185 0.001104
146.849487304688 229.320251464844 53.992073059082 0.990125 -0.140185 0.001104
157.061279296875 301.980865478516 53.852619171143 0.990125 -0.140185 0.001104
147.207015991211 231.864227294922 54.063606262207 0.990125 -0.140185 0.001104
149.551849365234 248.548553466797 52.455684661865 0.990125 -0.140185 0.001104
164.178192138672 352.620422363281 46.826965332031 0.990125 -0.140185 0.001104
138.441024780273 169.490875244141 60.602722167969 0.990125 -0.140185 0.001104
161.747238159180 335.418395996094 64.680984497070 0.986571 -0.138570 0.086458
162.085540771484 338.599853515625 65.332069396973 0.956405 -0.133237 0.259878
144.519042968750 213.732513427734 65.396820068359 0.956405 -0.133237 0.259878
169.002365112305 389.058135986328 65.798011779785 0.897535 -0.125796 0.422619
140.595382690430 186.629486083984 65.707740783691 0.897535 -0.125796 0.422619
139.902374267578 182.784439086914 66.031112670898 0.812290 -0.112696 0.572262
138.600967407227 174.130859375000 66.151657104492 0.812290 -0.112696 0.572262
161.732543945313 340.988555908203 66.559150695801 0.700729 -0.098425 0.706605
141.943481445313 201.491500854492 66.741378784180 0.700729 -0.098425 0.706605
166.635574340820 379.662017822266 67.008659362793 0.569077 -0.078839 0.818496
160.554031372070 337.585601806641 67.125205993652 0.569077 -0.078839 0.818496
167.479782104492 388.046752929688 67.202751159668 0.417579 -0.058110 0.906781
159.965454101563 336.547973632813 67.330505371094 0.417579 -0.058110 0.906781
161.342666625977 349.435058593750 67.453414916992 0.256506 -0.035592 0.965887
138.333908081055 188.431152343750 67.507064819336 0.086485 -0.011745 0.996184
164.670776367188 389.544006347656 67.529617309570 0.000978 0.000978 0.999999
149.328643798828 288.568878173828 67.529609680176 0.000978 0.000978 0.999999
162.097427368164 373.353790283203 67.529617309570 0.000978 0.000978 0.999999
160.069732666016 364.265686035156 67.529617309570 0.000978 0.000978 0.999999
157.997116088867 358.211700439453 67.529617309570 0.000978 0.000978 0.999999
161.720458984375 382.007843017578 67.529617309570 0.000978 0.000978 0.999999
141.202407836914 210.979598999023 67.529609680176 0.000978 0.000978 0.999999
142.383239746094 222.398574829102 67.529609680176 0.000978 0.000978 0.999999
140.029556274414 211.648529052734 67.529609680176 0.000978 0.000978 0.999999
149.882751464844 280.788574218750 67.529609680176 0.000978 0.000978 0.999999
146.016159057617 251.132720947266 67.529609680176 0.000978 0.000978 0.999999
140.516448974609 225.801620483398 67.529609680176 0.000978 0.000978 0.999999
135.856918334961 191.977676391602 67.529609680176 0.000978 0.000978 0.999999
167.442565917969 423.072418212891 -129.360748291016 -0.730182 0.683251 0.001380
163.288803100586 421.733337402344 -134.767669677734 0.226229 0.974073 0.001172
160.351013183594 425.721099853516 -133.727386474609 0.998629 -0.052343 0.001026
164.830581665039 457.844940185547 -128.577682495117 0.974073 -0.226229 0.001172
169.122238159180 461.242889404297 -131.339233398438 -0.052343 -0.998629 0.001026
172.530609130859 458.656127929688 -125.183700561523 -0.956644 -0.291258 0.001219
165.459320068359 443.659851074219 -132.492599487305 0.452981 -0.891519 0.001313
166.444442749023 438.938079833984 -125.978912353516 0.052343 0.998629 0.001026
166.140151977539 438.966979980469 -132.322769165039 0.226229 0.974073 0.001172
164.129699707031 429.571258544922 132.567825317383 0.123096 -0.992394 0.001089
162.974197387695 429.332733154297 132.079788208008 0.291258 -0.956644 0.001219
160.733108520508 427.296844482422 134.825119018555 0.920595 -0.390517 0.001280
160.573013305664 426.919677734375 127.894783020020 0.920595 -0.390517 0.001280
166.059631347656 421.988677978516 133.963088989258 -0.452981 0.891519 0.001313
169.853256225586 461.113769531250 133.968185424805 -0.226229 -0.974073 0.001172
165.181640625000 458.973602294922 132.430191040039 0.920595 -0.390517 0.001280
164.790756225586 457.123748779297 126.274337768555 0.992690 0.120688 0.001087
165.329833984375 455.278991699219 125.844993591309 0.891519 0.452981 0.001313
167.219879150391 453.606689453125 131.462478637695 0.390517 0.920595 0.001280
170.725463867188 453.785430908203 134.172439575195 -0.452981 0.891519 0.001313
172.682220458984 456.426116943359 133.469314575195 -0.974073 0.226229 0.001172
168.987915039063 442.005126953125 125.518241882324 -0.956644 -0.291258 0.001219
167.172454833984 443.840667724609 133.687881469727 -0.226229 -0.974073 0.001172
165.822113037109 443.804382324219 128.167617797852 0.291258 -0.956644 0.001219
165.335815429688 443.596923828125 128.830810546875 0.452981 -0.891519 0.001313
