//X Y Z Nx Ny Nz
613
120.505477905273 -86.668312072754 72.905426025391 0.999999 0.000978 0.000978
120.505477905273 -24.971759796143 74.848999023438 0.999999 0.000978 0.000978
120.505477905273 -42.708690643311 61.956253051758 0.999999 0.000978 0.000978
120.505477905273 -53.494071960449 52.199932098389 0.999999 0.000978 0.000978
120.505477905273 -49.782493591309 58.679695129395 0.999999 0.000978 0.000978
120.505477905273 -19.872499465942 70.380325317383 0.999999 0.000978 0.000978
120.505477905273 -45.377609252930 53.953510284424 0.999999 0.000978 0.000978
120.505477905273 -35.186988830566 65.945709228516 0.999999 0.000978 0.000978
120.505477905273 -43.927684783936 49.409847259521 0.999999 0.000978 0.000978
120.505477905273 -25.903890609741 72.008590698242 0.999999 0.000978 0.000978
120.505477905273 -35.652889251709 59.684566497803 0.999999 0.000978 0.000978
120.505477905273 -21.657447814941 74.871574401855 0.999999 0.000978 0.000978
120.505477905273 -20.925540924072 52.735218048096 0.999999 0.000978 0.000978
120.505477905273 -48.429206848145 50.679874420166 0.999999 0.000978 0.000978
120.505477905273 -36.889495849609 51.065071105957 0.999999 0.000978 0.000978
120.505477905273 -26.784410476685 49.614414215088 0.999999 0.000978 0.000978
120.505477905273 -20.193515777588 72.615135192871 0.999999 0.000978 0.000978
163.394439697266 -453.279022216797 55.727905273438 0.992394 0.123096 0.001089
163.074508666992 -450.674224853516 55.099296569824 0.992394 0.123096 0.001089
162.486343383789 -445.885559082031 55.191993713379 0.992394 0.123096 0.001089
162.443634033203 -445.537872314453 59.351745605469 0.992394 0.123096 0.001089
161.545471191406 -438.225189208984 54.289916992188 0.992394 0.123096 0.001089
161.187026977539 -435.306793212891 53.992759704590 0.992394 0.123096 0.001089
162.255737304688 -444.008026123047 60.329257965088 0.992394 0.123096 0.001089
148.838043212891 -334.764648437500 58.399826049805 0.992394 0.123096 0.001089
160.074096679688 -426.245788574219 73.179306030273 0.992394 0.123096 0.001089
157.595275878906 -406.063659667969 60.085628509521 0.992394 0.123096 0.001089
160.105239868164 -426.499237060547 56.999908447266 0.992394 0.123096 0.001089
150.227096557617 -346.074035644531 51.693496704102 0.992394 0.123096 0.001089
160.073562622070 -426.241271972656 70.193565368652 0.992394 0.123096 0.001089
160.873535156250 -432.754516601563 56.427097320557 0.992394 0.123096 0.001089
148.549621582031 -332.416320800781 55.991622924805 0.992394 0.123096 0.001089
149.443298339844 -339.692443847656 58.968059539795 0.992394 0.123096 0.001089
151.134017944336 -353.457855224609 62.108280181885 0.992394 0.123096 0.001089
148.511169433594 -332.103210449219 55.293640136719 0.992394 0.123096 0.001089
159.203292846680 -419.155822753906 68.072906494141 0.992394 0.123096 0.001089
159.095657348633 -418.279449462891 69.561035156250 0.992394 0.123096 0.001089
148.160369873047 -329.247192382813 53.802658081055 0.992394 0.123096 0.001089
157.434646606445 -404.755920410156 52.508068084717 0.992394 0.123096 0.001089
156.081481933594 -393.738891601563 60.490543365479 0.992394 0.123096 0.001089
156.877151489258 -400.217071533203 68.141883850098 0.992394 0.123096 0.001089
158.267623901367 -411.537872314453 52.509712219238 0.992394 0.123096 0.001089
156.605850219727 -398.008117675781 55.869510650635 0.992394 0.123096 0.001089
150.266479492188 -346.394622802734 57.993148803711 0.992394 0.123096 0.001089
150.654754638672 -349.555725097656 53.910358428955 0.992394 0.123096 0.001089
161.594345092773 -438.623107910156 76.481163024902 0.992394 0.123096 0.001089
159.018218994141 -417.648956298828 67.843315124512 0.992394 0.123096 0.001089
152.693695068359 -366.156341552734 59.579269409180 0.992394 0.123096 0.001089
160.205108642578 -427.312377929688 65.622024536133 0.992394 0.123096 0.001089
158.070953369141 -409.936523437500 58.539756774902 0.992394 0.123096 0.001089
156.990295410156 -401.138183593750 53.034442901611 0.992394 0.123096 0.001089
151.854431152344 -359.323242187500 51.616672515869 0.992394 0.123096 0.001089
155.165618896484 -386.282104492188 62.519599914551 0.992394 0.123096 0.001089
147.658920288086 -325.164581298828 52.508071899414 0.992394 0.123096 0.001089
162.055770874023 -442.379974365234 70.887435913086 0.992394 0.123096 0.001089
154.861633300781 -383.807159423828 66.530799865723 0.992394 0.123096 0.001089
161.808090209961 -440.363403320313 65.529129028320 0.992394 0.123096 0.001089
156.778198242188 -399.411254882813 59.621772766113 0.992394 0.123096 0.001089
156.833435058594 -399.861114501953 64.215484619141 0.992394 0.123096 0.001089
160.194976806641 -427.229858398438 58.010112762451 0.992394 0.123096 0.001089
162.121185302734 -442.912597656250 75.764793395996 0.992394 0.123096 0.001089
155.895156860352 -392.221862792969 67.114044189453 0.992394 0.123096 0.001089
148.926559448242 -335.485321044922 50.698104858398 0.992394 0.123096 0.001089
144.124771118164 -296.390319824219 51.584430694580 0.992394 0.123096 0.001089
148.465225219727 -331.729187011719 49.582668304443 0.992394 0.123096 0.001089
159.331100463867 -420.196289062500 61.171283721924 0.992394 0.123096 0.001089
161.681335449219 -439.331481933594 62.045543670654 0.992394 0.123096 0.001089
149.184478759766 -337.585144042969 49.998123168945 0.992394 0.123096 0.001089
152.466506958008 -364.306579589844 56.904434204102 0.992394 0.123096 0.001089
159.945648193359 -425.199829101563 56.585994720459 0.992394 0.123096 0.001089
159.309234619141 -420.018310546875 72.497558593750 0.992394 0.123096 0.001089
146.724533081055 -317.557006835938 51.131015777588 0.992394 0.123096 0.001089
156.307540893555 -395.579315185547 64.425460815430 0.992394 0.123096 0.001089
160.114959716797 -426.578277587891 64.379631042480 0.992394 0.123096 0.001089
145.062255859375 -304.023132324219 66.540634155273 0.992394 0.123096 0.001089
148.395736694336 -331.163574218750 64.127540588379 0.992394 0.123096 0.001089
157.366210937500 -404.198852539063 71.269950866699 0.992394 0.123096 0.001089
130.650115966797 -186.683288574219 66.772651672363 0.992394 0.123096 0.001089
131.033691406250 -189.806304931641 66.554733276367 0.992394 0.123096 0.001089
147.972442626953 -327.717102050781 61.921142578125 0.992394 0.123096 0.001089
127.938102722168 -164.602813720703 77.657257080078 0.992394 0.123096 0.001089
158.870681762695 -416.447814941406 78.706649780273 0.992394 0.123096 0.001089
137.653717041016 -243.704833984375 65.682159423828 0.992394 0.123096 0.001089
135.964843750000 -229.954376220703 65.196525573730 0.992394 0.123096 0.001089
136.150894165039 -231.469207763672 66.531852722168 0.992394 0.123096 0.001089
141.478073120117 -274.841705322266 67.478042602539 0.992394 0.123096 0.001089
144.987915039063 -303.417968750000 66.338851928711 0.992394 0.123096 0.001089
141.999923706055 -279.090454101563 73.826187133789 0.992394 0.123096 0.001089
147.133865356445 -320.889678955078 60.317115783691 0.992394 0.123096 0.001089
135.697052001953 -227.774169921875 63.587516784668 0.992394 0.123096 0.001089
139.053817749023 -255.104095458984 63.876743316650 0.992394 0.123096 0.001089
141.489334106445 -274.933349609375 69.574279785156 0.992394 0.123096 0.001089
155.446823120117 -388.571655273438 79.064445495605 0.992394 0.123096 0.001089
127.566719055176 -161.579132080078 72.619674682617 0.992394 0.123096 0.001089
137.366897583008 -241.369628906250 75.309326171875 0.992394 0.123096 0.001089
141.587509155273 -275.732635498047 73.090049743652 0.992394 0.123096 0.001089
141.749237060547 -277.049377441406 62.928997039795 0.992394 0.123096 0.001089
140.628128051758 -267.921722412109 69.044120788574 0.992394 0.123096 0.001089
148.920776367188 -335.438232421875 70.122604370117 0.992394 0.123096 0.001089
141.015518188477 -271.075653076172 69.014686584473 0.992394 0.123096 0.001089
145.527984619141 -307.815002441406 62.596599578857 0.992394 0.123096 0.001089
132.714630126953 -203.491989135742 68.819877624512 0.992394 0.123096 0.001089
141.376663208008 -274.016052246094 72.732955932617 0.992394 0.123096 0.001089
150.581420898438 -348.958679199219 64.061439514160 0.992394 0.123096 0.001089
140.588638305664 -267.600097656250 60.614131927490 0.992394 0.123096 0.001089
134.242202758789 -215.929138183594 59.756340026855 0.992394 0.123096 0.001089
143.881469726563 -294.409515380859 71.455078125000 0.992394 0.123096 0.001089
149.423950195313 -339.534942626953 71.025726318359 0.992394 0.123096 0.001089
144.676757812500 -300.884613037109 77.845489501953 0.992394 0.123096 0.001089
158.735534667969 -415.347412109375 79.149574279785 0.992394 0.123096 0.001089
135.787872314453 -228.513519287109 66.698616027832 0.992394 0.123096 0.001089
153.205154418945 -370.320495605469 68.798377990723 0.992394 0.123096 0.001089
126.336929321289 -151.566482543945 74.431953430176 0.992394 0.123096 0.001089
151.759338378906 -358.548980712891 69.357040405273 0.992394 0.123096 0.001089
153.121414184570 -369.638702392578 77.377616882324 0.992394 0.123096 0.001089
147.801635742188 -326.326538085938 76.171455383301 0.992394 0.123096 0.001089
135.030639648438 -222.348358154297 68.517097473145 0.992394 0.123096 0.001089
126.486389160156 -152.783340454102 74.190429687500 0.992394 0.123096 0.001089
130.157180786133 -182.669921875000 69.804222106934 0.992394 0.123096 0.001089
130.850387573242 -188.313842773438 66.725448608398 0.992394 0.123096 0.001089
149.195632934570 -337.675994873047 66.848632812500 0.992394 0.123096 0.001089
132.765197753906 -203.903747558594 70.736511230469 0.992394 0.123096 0.001089
135.232742309570 -223.993850708008 70.346900939941 0.992394 0.123096 0.001089
144.365783691406 -298.352661132813 74.136138916016 0.992394 0.123096 0.001089
148.453460693359 -331.633483886719 66.235206604004 0.992394 0.123096 0.001089
138.462173461914 -250.287017822266 78.952255249023 0.992394 0.123096 0.001089
144.831619262695 -302.145446777344 70.091918945313 0.992394 0.123096 0.001089
143.860137939453 -294.235809326172 68.877380371094 0.992394 0.123096 0.001089
138.516601562500 -250.730148315430 60.635414123535 0.992394 0.123096 0.001089
151.810684204102 -358.967193603516 70.091979980469 0.992394 0.123096 0.001089
142.429412841797 -282.587280273438 62.840766906738 0.992394 0.123096 0.001089
145.920013427734 -311.006927490234 69.150665283203 0.992394 0.123096 0.001089
129.207931518555 -174.941360473633 68.152618408203 0.992394 0.123096 0.001089
135.206161499023 -223.777465820313 72.324859619141 0.992394 0.123096 0.001089
132.229537963867 -199.542556762695 69.368003845215 0.992394 0.123096 0.001089
128.748962402344 -171.204605102539 76.147689819336 0.992394 0.123096 0.001089
140.938583374023 -270.449218750000 52.845523834229 0.992394 0.123096 0.001089
146.061676025391 -312.160186767578 76.497817993164 0.992394 0.123096 0.001089
153.227188110352 -370.499908447266 78.506820678711 0.992394 0.123096 0.001089
139.664657592773 -260.077362060547 77.440620422363 0.992394 0.123096 0.001089
126.838920593262 -155.653594970703 72.289756774902 0.992394 0.123096 0.001089
160.735168457031 -431.628021240234 76.090705871582 0.992394 0.123096 0.001089
140.198013305664 -264.419708251953 61.288932800293 0.992394 0.123096 0.001089
142.597137451172 -283.952758789063 75.693107604980 0.992394 0.123096 0.001089
130.750640869141 -187.501739501953 71.122177124023 0.992394 0.123096 0.001089
137.763916015625 -244.602005004883 59.086013793945 0.992394 0.123096 0.001089
143.959716796875 -295.046661376953 69.322357177734 0.992394 0.123096 0.001089
141.724212646484 -276.845794677734 76.356643676758 0.992394 0.123096 0.001089
153.429870605469 -372.150024414063 72.650787353516 0.992394 0.123096 0.001089
131.641021728516 -194.751007080078 70.361495971680 0.992394 0.123096 0.001089
129.455200195313 -176.954696655273 73.866889953613 0.992394 0.123096 0.001089
140.360519409180 -265.742858886719 77.834487915039 0.992394 0.123096 0.001089
142.009002685547 -279.164306640625 60.555332183838 0.992394 0.123096 0.001089
133.331817626953 -208.517028808594 68.649291992188 0.992394 0.123096 0.001089
159.010467529297 -417.585784912109 73.747146606445 0.992394 0.123096 0.001089
125.192436218262 -142.248306274414 75.275444030762 0.992394 0.123096 0.001089
161.233428955078 -435.684692382813 79.094070434570 0.992394 0.123096 0.001089
153.762237548828 -374.856140136719 69.198287963867 0.992394 0.123096 0.001089
142.109191894531 -279.980072021484 53.460853576660 0.992394 0.123096 0.001089
138.401763916016 -249.795166015625 62.139167785645 0.992394 0.123096 0.001089
152.627487182617 -365.617248535156 70.156761169434 0.992394 0.123096 0.001089
140.321380615234 -265.424255371094 54.241035461426 0.992394 0.123096 0.001089
138.008941650391 -246.596862792969 53.972610473633 0.992394 0.123096 0.001089
143.658462524414 -292.593811035156 69.514900207520 0.992394 0.123096 0.001089
138.574279785156 -251.199752807617 78.976303100586 0.992394 0.123096 0.001089
142.458053588867 -282.820434570313 69.376457214355 0.992394 0.123096 0.001089
133.744689941406 -211.878540039063 70.839424133301 0.992394 0.123096 0.001089
136.342849731445 -233.032058715820 64.358345031738 0.992394 0.123096 0.001089
154.202224731445 -378.438446044922 75.236839294434 0.992394 0.123096 0.001089
141.833969116211 -277.739318847656 63.460857391357 0.992394 0.123096 0.001089
125.326606750488 -143.340759277344 78.878532409668 0.992394 0.123096 0.001089
125.958801269531 -148.487884521484 73.412887573242 0.992394 0.123096 0.001089
122.713844299316 -122.068252563477 76.051315307617 0.992394 0.123096 0.001089
136.551345825195 -234.729583740234 57.743762969971 0.992394 0.123096 0.001089
129.731719970703 -179.205978393555 73.249984741211 0.992394 0.123096 0.001089
136.268112182617 -232.423614501953 60.218238830566 0.992394 0.123096 0.001089
147.759933471680 -325.986999511719 64.176742553711 0.992394 0.123096 0.001089
137.620788574219 -243.436752319336 71.380050659180 0.992394 0.123096 0.001089
127.143341064453 -158.132080078125 78.310081481934 0.992394 0.123096 0.001089
141.499938964844 -275.019744873047 76.437347412109 0.992394 0.123096 0.001089
131.098129272461 -190.330856323242 68.295150756836 0.992394 0.123096 0.001089
150.438507080078 -347.795227050781 70.521163940430 0.992394 0.123096 0.001089
124.374130249023 -135.585922241211 73.451301574707 0.992394 0.123096 0.001089
128.553634643555 -169.614318847656 66.584350585938 0.992394 0.123096 0.001089
139.658813476563 -260.029724121094 50.553607940674 0.992394 0.123096 0.001089
130.981521606445 -189.381454467773 63.112552642822 0.992394 0.123096 0.001089
127.394752502441 -160.178955078125 60.737693786621 0.992394 0.123096 0.001089
127.001678466797 -156.978698730469 65.054489135742 0.992394 0.123096 0.001089
123.790779113770 -130.836380004883 51.215675354004 0.992394 0.123096 0.001089
129.747467041016 -179.334106445313 51.013362884521 0.992394 0.123096 0.001089
122.144897460938 -117.436050415039 71.528686523438 0.992394 0.123096 0.001089
123.188751220703 -125.934875488281 51.023738861084 0.992394 0.123096 0.001089
133.312423706055 -208.359069824219 52.690979003906 0.992394 0.123096 0.001089
126.029174804688 -149.060791015625 59.088237762451 0.992394 0.123096 0.001089
134.144104003906 -215.130340576172 56.604873657227 0.992394 0.123096 0.001089
123.481483459473 -128.318191528320 62.014961242676 0.992394 0.123096 0.001089
127.453407287598 -160.656539916992 59.925449371338 0.992394 0.123096 0.001089
128.814086914063 -171.734771728516 53.743648529053 0.992394 0.123096 0.001089
121.034057617188 -108.391906738281 60.204608917236 0.992394 0.123096 0.001089
131.364028930664 -192.495697021484 56.061504364014 0.992394 0.123096 0.001089
120.915687561035 -107.428176879883 70.137802124023 0.992394 0.123096 0.001089
120.837913513184 -106.794952392578 75.246925354004 0.992394 0.123096 0.001089
121.266502380371 -110.284416198730 71.902740478516 0.992394 0.123096 0.001089
131.687652587891 -195.130615234375 59.067813873291 0.992394 0.123096 0.001089
134.739105224609 -219.974731445313 53.763622283936 0.992394 0.123096 0.001089
124.624343872070 -137.623077392578 71.230857849121 0.992394 0.123096 0.001089
122.176094055176 -117.690055847168 68.116577148438 0.992394 0.123096 0.001089
122.118690490723 -117.222694396973 65.989234924316 0.992394 0.123096 0.001089
136.189300537109 -231.781799316406 53.513191223145 0.992394 0.123096 0.001089
123.614662170410 -129.402481079102 53.828113555908 0.992394 0.123096 0.001089
122.294586181641 -118.654777526855 71.419258117676 0.992394 0.123096 0.001089
128.460266113281 -168.854125976563 58.665943145752 0.992394 0.123096 0.001089
130.489791870117 -185.377914428711 62.811626434326 0.992394 0.123096 0.001089
131.044433593750 -189.893615722656 54.360317230225 0.992394 0.123096 0.001089
124.539176940918 -136.929626464844 52.673488616943 0.992394 0.123096 0.001089
123.364181518555 -127.363121032715 63.558891296387 0.992394 0.123096 0.001089
132.946823120117 -205.382385253906 57.381118774414 0.992394 0.123096 0.001089
127.238365173340 -158.905731201172 57.234596252441 0.992394 0.123096 0.001089
128.160003662109 -166.409454345703 54.520744323730 0.992394 0.123096 0.001089
123.926193237305 -131.938873291016 51.369064331055 0.992394 0.123096 0.001089
133.761947631836 -212.018920898438 50.188629150391 0.992394 0.123096 0.001089
122.251991271973 -118.308013916016 74.596984863281 0.992394 0.123096 0.001089
121.388046264648 -111.273986816406 54.101646423340 0.992394 0.123096 0.001089
134.391265869141 -217.142639160156 52.990749359131 0.992394 0.123096 0.001089
122.688529968262 -121.862152099609 59.190769195557 0.992394 0.123096 0.001089
132.828186035156 -204.416458129883 53.182483673096 0.992394 0.123096 0.001089
124.136054992676 -133.647506713867 60.467060089111 0.992394 0.123096 0.001089
121.759986877441 -114.302215576172 68.635604858398 0.992394 0.123096 0.001089
124.799636840820 -139.050247192383 53.967803955078 0.992394 0.123096 0.001089
121.398200988770 -111.356704711914 71.715011596680 0.992394 0.123096 0.001089
128.247482299805 -167.121627807617 65.497596740723 0.992394 0.123096 0.001089
122.625091552734 -121.345680236816 67.800315856934 0.992394 0.123096 0.001089
121.331153869629 -110.810821533203 64.202087402344 0.992394 0.123096 0.001089
133.718582153320 -454.183227539063 72.294853210449 0.000978 -0.999999 0.000978
135.381301879883 -454.183227539063 68.236442565918 0.000978 -0.999999 0.000978
138.901702880859 -454.183227539063 51.663238525391 0.000978 -0.999999 0.000978
138.699478149414 -454.183227539063 63.799030303955 0.000978 -0.999999 0.000978
145.009414672852 -454.183227539063 78.530517578125 0.000978 -0.999999 0.000978
145.979095458984 -454.183227539063 71.898376464844 0.000978 -0.999999 0.000978
138.984802246094 -454.183227539063 72.542129516602 0.000978 -0.999999 0.000978
141.712631225586 -454.183227539063 65.191825866699 0.000978 -0.999999 0.000978
155.730331420898 -454.183227539063 77.214782714844 0.000978 -0.999999 0.000978
147.732818603516 -454.183227539063 64.327438354492 0.000978 -0.999999 0.000978
139.322097778320 -454.183227539063 49.578117370605 0.000978 -0.999999 0.000978
160.804000854492 -454.183227539063 55.522556304932 0.000978 -0.999999 0.000978
146.811141967773 -454.183227539063 49.697063446045 0.000978 -0.999999 0.000978
154.797760009766 -454.183227539063 51.625888824463 0.000978 -0.999999 0.000978
159.621643066406 -454.183227539063 53.834751129150 0.000978 -0.999999 0.000978
150.118515014648 -454.183227539063 53.507728576660 0.000978 -0.999999 0.000978
157.051803588867 -454.183227539063 53.742305755615 0.000978 -0.999999 0.000978
153.689331054688 -454.183227539063 64.020256042480 0.000978 -0.999999 0.000978
163.424789428711 -454.183227539063 77.673904418945 0.000978 -0.999999 0.000978
84.089653015137 -130.002182006836 64.229057312012 -0.988665 -0.150135 0.001112
85.364234924316 -138.363769531250 71.407020568848 -0.988665 -0.150135 0.001112
84.698852539063 -133.998687744141 70.537658691406 -0.988665 -0.150135 0.001112
84.951667785645 -135.657211303711 55.217037200928 -0.988665 -0.150135 0.001112
84.216567993164 -130.834808349609 64.837509155273 -0.988665 -0.150135 0.001112
86.301071166992 -144.509689331055 58.248908996582 -0.988665 -0.150135 0.001112
86.551841735840 -146.154800415039 57.582118988037 -0.988665 -0.150135 0.001112
84.415206909180 -132.137924194336 70.104446411133 -0.988665 -0.150135 0.001112
88.519416809082 -159.062576293945 49.424144744873 -0.988665 -0.150135 0.001112
83.857994079590 -128.482482910156 49.297866821289 -0.988665 -0.150135 0.001112
85.006248474121 -136.015274047852 51.240177154541 -0.988665 -0.150135 0.001112
84.576866149902 -133.198471069336 58.284446716309 -0.988665 -0.150135 0.001112
88.716743469238 -160.357116699219 57.444969177246 -0.988665 -0.150135 0.001112
87.954635620117 -155.357498168945 60.910675048828 -0.988665 -0.150135 0.001112
84.849693298340 -134.988235473633 67.679260253906 -0.988665 -0.150135 0.001112
84.612541198730 -133.432495117188 55.973068237305 -0.988665 -0.150135 0.001112
88.556518554688 -159.306015014648 49.720214843750 -0.988665 -0.150135 0.001112
88.302421569824 -157.639068603516 52.218917846680 -0.988665 -0.150135 0.001112
87.464569091797 -152.142547607422 50.921768188477 -0.988665 -0.150135 0.001112
84.850143432617 -134.991195678711 50.127754211426 -0.988665 -0.150135 0.001112
86.636001586914 -146.706893920898 72.267951965332 -0.988665 -0.150135 0.001112
93.422645568848 -191.229064941406 69.734283447266 -0.988665 -0.150135 0.001112
93.920700073242 -194.496414184570 51.586185455322 -0.988665 -0.150135 0.001112
103.561309814453 -257.741333007813 69.256385803223 -0.988665 -0.150135 0.001112
92.892463684082 -187.750930786133 73.673316955566 -0.988665 -0.150135 0.001112
95.900901794434 -207.487091064453 54.104431152344 -0.988665 -0.150135 0.001112
100.510131835938 -237.724822998047 61.375572204590 -0.988665 -0.150135 0.001112
102.153320312500 -248.504592895508 64.244613647461 -0.988665 -0.150135 0.001112
88.113792419434 -156.401611328125 75.530960083008 -0.988665 -0.150135 0.001112
108.110939025879 -287.588165283203 73.026786804199 -0.988665 -0.150135 0.001112
97.657318115234 -219.009674072266 71.469718933105 -0.988665 -0.150135 0.001112
103.607093811035 -258.041717529297 69.957733154297 -0.988665 -0.150135 0.001112
93.396896362305 -191.060165405273 74.541374206543 -0.988665 -0.150135 0.001112
90.300338745117 -170.745941162109 76.786888122559 -0.988665 -0.150135 0.001112
86.592292785645 -146.420166015625 74.388282775879 -0.988665 -0.150135 0.001112
94.540954589844 -198.565444946289 72.825996398926 -0.988665 -0.150135 0.001112
103.221450805664 -255.511810302734 69.277175903320 -0.988665 -0.150135 0.001112
98.972389221191 -227.636856079102 75.595603942871 -0.988665 -0.150135 0.001112
105.742263793945 -272.049041748047 72.380287170410 -0.988665 -0.150135 0.001112
94.268524169922 -196.778289794922 58.280448913574 -0.988665 -0.150135 0.001112
98.266357421875 -223.005096435547 60.612968444824 -0.988665 -0.150135 0.001112
96.701698303223 -212.740509033203 77.140884399414 -0.988665 -0.150135 0.001112
95.527511596680 -205.037551879883 60.324096679688 -0.988665 -0.150135 0.001112
93.152000427246 -189.453521728516 56.327999114990 -0.988665 -0.150135 0.001112
90.972358703613 -175.154479980469 57.740745544434 -0.988665 -0.150135 0.001112
93.483352661133 -191.627319335938 54.534725189209 -0.988665 -0.150135 0.001112
93.196495056152 -189.745391845703 58.774330139160 -0.988665 -0.150135 0.001112
96.552421569824 -211.761230468750 71.076499938965 -0.988665 -0.150135 0.001112
100.650215148926 -238.643829345703 63.396770477295 -0.988665 -0.150135 0.001112
91.826797485352 -180.759826660156 56.724319458008 -0.988665 -0.150135 0.001112
91.545394897461 -178.913848876953 65.882057189941 -0.988665 -0.150135 0.001112
96.514266967773 -211.510894775391 61.390110015869 -0.988665 -0.150135 0.001112
100.506156921387 -237.698730468750 65.148124694824 -0.988665 -0.150135 0.001112
94.010833740234 -195.087722778320 61.753028869629 -0.988665 -0.150135 0.001112
84.876022338867 -135.161010742188 79.003799438477 -0.988665 -0.150135 0.001112
88.157890319824 -156.690917968750 74.646369934082 -0.988665 -0.150135 0.001112
89.456733703613 -165.211593627930 65.345451354980 -0.988665 -0.150135 0.001112
93.607849121094 -192.444061279297 61.814586639404 -0.988665 -0.150135 0.001112
89.361183166504 -164.584808349609 68.085083007813 -0.988665 -0.150135 0.001112
109.402549743652 -296.061431884766 72.511299133301 -0.988665 -0.150135 0.001112
90.348709106445 -171.063217163086 60.151901245117 -0.988665 -0.150135 0.001112
89.525062561035 -165.659881591797 62.952186584473 -0.988665 -0.150135 0.001112
106.286392211914 -275.618591308594 69.213653564453 -0.988665 -0.150135 0.001112
102.464492797852 -250.545989990234 66.497756958008 -0.988665 -0.150135 0.001112
104.132354736328 -261.487579345703 74.167564392090 -0.988665 -0.150135 0.001112
94.637710571289 -199.200210571289 74.851943969727 -0.988665 -0.150135 0.001112
93.082389831543 -188.996887207031 54.325428009033 -0.988665 -0.150135 0.001112
93.689155578613 -192.977432250977 73.672470092773 -0.988665 -0.150135 0.001112
95.521453857422 -204.997817993164 59.191726684570 -0.988665 -0.150135 0.001112
99.044075012207 -228.107116699219 64.380989074707 -0.988665 -0.150135 0.001112
93.252532958984 -190.113052368164 75.915420532227 -0.988665 -0.150135 0.001112
96.361625671387 -210.509521484375 74.219970703125 -0.988665 -0.150135 0.001112
94.508277893066 -198.351074218750 59.885265350342 -0.988665 -0.150135 0.001112
94.740837097168 -199.876800537109 71.594276428223 -0.988665 -0.150135 0.001112
118.344825744629 -354.725250244141 79.233711242676 -0.988665 -0.150135 0.001112
97.085517883301 -215.258529663086 77.684158325195 -0.988665 -0.150135 0.001112
121.663078308105 -376.493804931641 77.719108581543 -0.988665 -0.150135 0.001112
110.210441589355 -301.361511230469 79.112731933594 -0.988665 -0.150135 0.001112
103.709182739258 -258.711486816406 76.813400268555 -0.988665 -0.150135 0.001112
106.350646972656 -276.040191650391 76.212211608887 -0.988665 -0.150135 0.001112
117.385101318359 -348.429077148438 76.874183654785 -0.988665 -0.150135 0.001112
103.281623840332 -255.906616210938 78.271713256836 -0.988665 -0.150135 0.001112
102.826690673828 -252.922134399414 78.662284851074 -0.988665 -0.150135 0.001112
119.829452514648 -364.464782714844 78.637779235840 -0.988665 -0.150135 0.001112
101.379516601563 -243.428298950195 78.481697082520 -0.988665 -0.150135 0.001112
102.856567382813 -253.118148803711 78.078353881836 -0.988665 -0.150135 0.001112
99.698059082031 -232.397460937500 77.907920837402 -0.988665 -0.150135 0.001112
119.698486328125 -363.605590820313 77.851745605469 -0.988665 -0.150135 0.001112
117.151115417480 -346.894226074219 75.894500732422 -0.988665 -0.150135 0.001112
119.355789184570 -361.357360839844 76.668983459473 -0.988665 -0.150135 0.001112
133.477691650391 -454.000885009766 56.567646026611 -0.988665 -0.150135 0.001112
128.189636230469 -419.309844970703 60.129913330078 -0.988665 -0.150135 0.001112
132.333984375000 -446.497833251953 55.654212951660 -0.988665 -0.150135 0.001112
133.087310791016 -451.439819335938 55.880420684814 -0.988665 -0.150135 0.001112
127.699333190918 -416.093322753906 59.057357788086 -0.988665 -0.150135 0.001112
131.211883544922 -439.136566162109 56.295715332031 -0.988665 -0.150135 0.001112
128.891510009766 -423.914276123047 59.997406005859 -0.988665 -0.150135 0.001112
122.332893371582 -380.888061523438 73.049629211426 -0.988665 -0.150135 0.001112
130.393096923828 -433.765075683594 71.100120544434 -0.988665 -0.150135 0.001112
121.399871826172 -374.767211914063 71.304603576660 -0.988665 -0.150135 0.001112
129.294265747070 -426.556427001953 76.719543457031 -0.988665 -0.150135 0.001112
127.071159362793 -411.972351074219 77.418655395508 -0.988665 -0.150135 0.001112
122.824745178223 -384.114746093750 68.476928710938 -0.988665 -0.150135 0.001112
126.616577148438 -408.990142822266 69.155532836914 -0.988665 -0.150135 0.001112
131.930587768555 -443.851470947266 75.945854187012 -0.988665 -0.150135 0.001112
129.521636962891 -428.048156738281 65.236518859863 -0.988665 -0.150135 0.001112
122.978012084961 -385.120239257813 71.531990051270 -0.988665 -0.150135 0.001112
118.513847351074 -355.834136962891 75.308288574219 -0.988665 -0.150135 0.001112
126.777847290039 -410.048126220703 68.758544921875 -0.988665 -0.150135 0.001112
133.489822387695 -454.080383300781 56.230171203613 -0.988665 -0.150135 0.001112
123.812568664551 -390.595123291016 67.513496398926 -0.988665 -0.150135 0.001112
116.975875854492 -345.744659423828 73.618095397949 -0.988665 -0.150135 0.001112
130.914749145508 -437.187316894531 58.197772979736 -0.988665 -0.150135 0.001112
129.561233520508 -428.307800292969 65.105209350586 -0.988665 -0.150135 0.001112
127.911773681641 -417.486968994141 61.905723571777 -0.988665 -0.150135 0.001112
129.041564941406 -424.898712158203 74.923149108887 -0.988665 -0.150135 0.001112
128.682693481445 -422.544372558594 65.035827636719 -0.988665 -0.150135 0.001112
127.534240722656 -415.010223388672 67.024650573730 -0.988665 -0.150135 0.001112
133.444732666016 -453.784637451172 76.895423889160 -0.988665 -0.150135 0.001112
130.560043334961 -434.860290527344 67.147613525391 -0.988665 -0.150135 0.001112
123.006797790527 -385.309051513672 72.138046264648 -0.988665 -0.150135 0.001112
126.393615722656 -407.527465820313 60.344001770020 -0.988665 -0.150135 0.001112
131.134048461914 -438.625915527344 72.237403869629 -0.988665 -0.150135 0.001112
119.921249389648 -365.067077636719 72.132545471191 -0.988665 -0.150135 0.001112
130.755706787109 -436.143920898438 70.592315673828 -0.988665 -0.150135 0.001112
125.239341735840 -399.955108642578 63.360618591309 -0.988665 -0.150135 0.001112
124.530319213867 -395.303741455078 52.198577880859 -0.988665 -0.150135 0.001112
116.282836914063 -341.198150634766 65.496177673340 -0.988665 -0.150135 0.001112
118.267318725586 -354.216857910156 57.587387084961 -0.988665 -0.150135 0.001112
125.125732421875 -399.209838867188 57.996383666992 -0.988665 -0.150135 0.001112
119.945701599121 -365.227478027344 58.119667053223 -0.988665 -0.150135 0.001112
120.766830444336 -370.614288330078 53.646198272705 -0.988665 -0.150135 0.001112
118.819152832031 -357.837036132813 69.703727722168 -0.988665 -0.150135 0.001112
123.965728759766 -391.599914550781 62.114154815674 -0.988665 -0.150135 0.001112
123.172737121582 -386.397674560547 63.553867340088 -0.988665 -0.150135 0.001112
132.595764160156 -448.215118408203 49.569816589355 -0.988665 -0.150135 0.001112
116.478134155273 -342.479339599609 66.244888305664 -0.988665 -0.150135 0.001112
119.180076599121 -360.204742431641 63.999740600586 -0.988665 -0.150135 0.001112
116.397872924805 -341.952819824219 62.774322509766 -0.988665 -0.150135 0.001112
118.609954833984 -356.464599609375 53.882694244385 -0.988665 -0.150135 0.001112
124.513236999512 -395.191650390625 60.279499053955 -0.988665 -0.150135 0.001112
121.109085083008 -372.859558105469 60.554912567139 -0.988665 -0.150135 0.001112
117.527626037598 -349.364288330078 56.961547851563 -0.988665 -0.150135 0.001112
123.733451843262 -390.076080322266 52.290523529053 -0.988665 -0.150135 0.001112
118.552352905273 -356.086761474609 63.808349609375 -0.988665 -0.150135 0.001112
119.705902099609 -363.654327392578 66.117454528809 -0.988665 -0.150135 0.001112
116.924507141113 -345.407653808594 68.302810668945 -0.988665 -0.150135 0.001112
116.793952941895 -344.551208496094 55.870838165283 -0.988665 -0.150135 0.001112
123.596542358398 -389.177947998047 55.321113586426 -0.988665 -0.150135 0.001112
120.015838623047 -365.687591552734 66.889358520508 -0.988665 -0.150135 0.001112
129.002914428711 -424.645141601563 53.410728454590 -0.988665 -0.150135 0.001112
125.709838867188 -403.041717529297 49.788574218750 -0.988665 -0.150135 0.001112
128.597152709961 -421.983215332031 49.448093414307 -0.988665 -0.150135 0.001112
118.375205993652 -354.924621582031 52.827560424805 -0.988665 -0.150135 0.001112
114.890365600586 -332.063140869141 50.407939910889 -0.988665 -0.150135 0.001112
118.233787536621 -353.996826171875 50.518337249756 -0.988665 -0.150135 0.001112
114.177124023438 -327.384124755859 50.449062347412 -0.988665 -0.150135 0.001112
120.865936279297 -371.264434814453 50.551502227783 -0.988665 -0.150135 0.001112
117.343696594238 -348.157653808594 51.261054992676 -0.988665 -0.150135 0.001112
110.918334960938 -306.005493164063 51.830287933350 -0.988665 -0.150135 0.001112
110.984207153320 -306.437652587891 50.931900024414 -0.988665 -0.150135 0.001112
108.831779479980 -292.317138671875 50.241382598877 -0.988665 -0.150135 0.001112
110.133926391602 -300.859497070313 55.241218566895 -0.988665 -0.150135 0.001112
107.638717651367 -284.490203857422 56.288127899170 -0.988665 -0.150135 0.001112
110.527824401855 -303.443542480469 56.185394287109 -0.988665 -0.150135 0.001112
108.308967590332 -288.887237548828 53.743690490723 -0.988665 -0.150135 0.001112
107.663314819336 -284.651611328125 53.346542358398 -0.988665 -0.150135 0.001112
109.823989868164 -298.826202392578 56.095657348633 -0.988665 -0.150135 0.001112
110.299011230469 -301.942474365234 60.296821594238 -0.988665 -0.150135 0.001112
110.552619934082 -303.606201171875 67.296638488770 -0.988665 -0.150135 0.001112
104.174911499023 -261.766815185547 56.160022735596 -0.988665 -0.150135 0.001112
105.978874206543 -273.601257324219 61.478706359863 -0.988665 -0.150135 0.001112
105.602882385254 -271.134582519531 51.328060150146 -0.988665 -0.150135 0.001112
105.697967529297 -271.758361816406 51.693481445313 -0.988665 -0.150135 0.001112
108.444946289063 -289.779327392578 64.500663757324 -0.988665 -0.150135 0.001112
106.615440368652 -277.777252197266 60.021682739258 -0.988665 -0.150135 0.001112
105.119117736816 -267.960998535156 53.628940582275 -0.988665 -0.150135 0.001112
103.315773010254 -256.130584716797 62.817039489746 -0.988665 -0.150135 0.001112
101.506538391113 -244.261657714844 51.388042449951 -0.988665 -0.150135 0.001112
108.398880004883 -289.477111816406 71.018524169922 -0.988665 -0.150135 0.001112
107.306838989258 -282.313049316406 68.916488647461 -0.988665 -0.150135 0.001112
96.158721923828 -209.178436279297 50.044139862061 -0.988665 -0.150135 0.001112
100.836341857910 -239.864883422852 57.489353179932 -0.988665 -0.150135 0.001112
104.790596008301 -265.805877685547 61.878898620605 -0.988665 -0.150135 0.001112
106.275604248047 -275.547912597656 64.247390747070 -0.988665 -0.150135 0.001112
104.719009399414 -265.336151123047 63.991401672363 -0.988665 -0.150135 0.001112
103.934669494629 -260.190765380859 57.097648620605 -0.988665 -0.150135 0.001112
110.094589233398 -300.601440429688 73.100990295410 -0.988665 -0.150135 0.001112
108.446578979492 -289.790039062500 70.382316589355 -0.988665 -0.150135 0.001112
103.502914428711 -257.358306884766 59.604820251465 -0.988665 -0.150135 0.001112
95.305580139160 -203.581604003906 52.227649688721 -0.988665 -0.150135 0.001112
83.505477905273 -89.781745910645 61.523365020752 -0.999999 0.000978 0.000978
83.505477905273 -102.142959594727 55.143642425537 -0.999999 0.000978 0.000978
83.505477905273 -97.075889587402 56.315422058105 -0.999999 0.000978 0.000978
83.505477905273 -105.953285217285 60.303306579590 -0.999999 0.000978 0.000978
83.505477905273 -97.776046752930 60.520877838135 -0.999999 0.000978 0.000978
83.505477905273 -112.491821289063 52.390117645264 -0.999999 0.000978 0.000978
83.505477905273 -109.159523010254 57.817325592041 -0.999999 0.000978 0.000978
83.505477905273 -87.246749877930 64.431419372559 -0.999999 0.000978 0.000978
83.505477905273 -108.134384155273 75.950538635254 -0.999999 0.000978 0.000978
83.505477905273 -90.281425476074 73.946456909180 -0.999999 0.000978 0.000978
83.505477905273 -97.136672973633 68.457893371582 -0.999999 0.000978 0.000978
83.505477905273 -121.017486572266 64.073776245117 -0.999999 0.000978 0.000978
83.505477905273 -102.584220886230 64.763023376465 -0.999999 0.000978 0.000978
83.505477905273 -107.445472717285 69.210121154785 -0.999999 0.000978 0.000978
83.505477905273 -122.717536926270 66.053977966309 -0.999999 0.000978 0.000978
83.505477905273 -109.753059387207 65.482101440430 -0.999999 0.000978 0.000978
83.505477905273 -114.622985839844 68.191246032715 -0.999999 0.000978 0.000978
83.505477905273 -95.180320739746 71.439697265625 -0.999999 0.000978 0.000978
83.505477905273 -96.110641479492 69.933532714844 -0.999999 0.000978 0.000978
83.505477905273 -121.550155639648 75.455467224121 -0.999999 0.000978 0.000978
83.505477905273 -102.310554504395 78.538719177246 -0.999999 0.000978 0.000978
83.505477905273 -108.950241088867 78.429992675781 -0.999999 0.000978 0.000978
83.505477905273 -101.104759216309 78.100120544434 -0.999999 0.000978 0.000978
83.505477905273 -44.133399963379 78.271667480469 -0.999999 0.000978 0.000978
83.505477905273 -85.250839233398 78.913871765137 -0.999999 0.000978 0.000978
83.505477905273 -86.101348876953 78.847900390625 -0.999999 0.000978 0.000978
83.505477905273 -46.059070587158 75.758369445801 -0.999999 0.000978 0.000978
83.505477905273 -54.736763000488 76.232170104980 -0.999999 0.000978 0.000978
83.505477905273 -27.774738311768 68.049247741699 -0.999999 0.000978 0.000978
83.505477905273 -36.812332153320 63.885383605957 -0.999999 0.000978 0.000978
83.505477905273 -29.379970550537 72.437538146973 -0.999999 0.000978 0.000978
83.505477905273 -30.718820571899 74.987945556641 -0.999999 0.000978 0.000978
83.505477905273 -21.279846191406 53.681995391846 -0.999999 0.000978 0.000978
83.505477905273 -28.948154449463 64.791709899902 -0.999999 0.000978 0.000978
83.505477905273 -21.434793472290 75.300674438477 -0.999999 0.000978 0.000978
83.505477905273 -28.813606262207 54.675952911377 -0.999999 0.000978 0.000978
83.505477905273 -19.831853866577 50.506031036377 -0.999999 0.000978 0.000978
83.505477905273 -38.463199615479 53.704227447510 -0.999999 0.000978 0.000978
83.505477905273 -44.802574157715 51.042785644531 -0.999999 0.000978 0.000978
83.505477905273 -61.832580566406 51.383163452148 -0.999999 0.000978 0.000978
83.505477905273 -71.020988464355 53.081306457520 -0.999999 0.000978 0.000978
83.505477905273 -48.158706665039 53.030754089355 -0.999999 0.000978 0.000978
83.505477905273 -58.139656066895 49.682121276855 -0.999999 0.000978 0.000978
83.505477905273 -89.283050537109 49.619014739990 -0.999999 0.000978 0.000978
83.505477905273 -106.835945129395 51.512950897217 -0.999999 0.000978 0.000978
83.505477905273 -96.841941833496 49.530513763428 -0.999999 0.000978 0.000978
128.153411865234 111.650901794434 79.294746398926 0.000978 0.000978 0.999999
154.329681396484 249.782653808594 79.294754028320 0.000978 0.000978 0.999999
116.710113525391 42.343513488770 79.294746398926 0.000978 0.000978 0.999999
118.895278930664 80.584487915039 79.294746398926 0.000978 0.000978 0.999999
158.573013305664 307.458404541016 79.294754028320 0.000978 0.000978 0.999999
160.195724487305 302.520629882813 79.294754028320 0.000978 0.000978 0.999999
121.191574096680 50.548545837402 79.294746398926 0.000978 0.000978 0.999999
124.397071838379 25.115989685059 79.294738769531 0.000978 0.000978 0.999999
114.559951782227 16.688755035400 79.294738769531 0.000978 0.000978 0.999999
126.254051208496 100.138153076172 79.294746398926 0.000978 0.000978 0.999999
122.217720031738 17.347929000854 79.294738769531 0.000978 0.000978 0.999999
122.380783081055 87.998939514160 79.294746398926 0.000978 0.000978 0.999999
164.872680664063 333.312530517578 79.294754028320 0.000978 0.000978 0.999999
135.970245361328 138.897140502930 79.294746398926 0.000978 0.000978 0.999999
135.042922973633 131.847717285156 79.294746398926 0.000978 0.000978 0.999999
123.684928894043 98.854850769043 79.294746398926 0.000978 0.000978 0.999999
131.838714599609 158.886535644531 79.294746398926 0.000978 0.000978 0.999999
116.740478515625 56.136260986328 79.294746398926 0.000978 0.000978 0.999999
141.513305664063 206.695358276367 79.294754028320 0.000978 0.000978 0.999999
140.890304565430 192.140274047852 79.294746398926 0.000978 0.000978 0.999999
134.277053833008 104.297035217285 79.294746398926 0.000978 0.000978 0.999999
132.626342773438 129.414733886719 79.294746398926 0.000978 0.000978 0.999999
120.891242980957 66.422752380371 79.294746398926 0.000978 0.000978 0.999999
151.568511962891 270.174621582031 79.294754028320 0.000978 0.000978 0.999999
126.919921875000 139.150695800781 79.294746398926 0.000978 0.000978 0.999999
135.157501220703 146.581329345703 79.294746398926 0.000978 0.000978 0.999999
140.151214599609 217.904266357422 79.294754028320 0.000978 0.000978 0.999999
119.749404907227 56.372619628906 79.294746398926 0.000978 0.000978 0.999999
166.767242431641 359.977142333984 79.294754028320 0.000978 0.000978 0.999999
150.342895507813 258.958007812500 79.294754028320 0.000978 0.000978 0.999999
109.410179138184 35.372261047363 79.294746398926 0.000978 0.000978 0.999999
116.968582153320 22.140869140625 79.294738769531 0.000978 0.000978 0.999999
99.542846679688 -46.115901947021 79.294738769531 0.000978 0.000978 0.999999
120.224578857422 6.389310836792 79.294738769531 0.000978 0.000978 0.999999
123.414703369141 20.458927154541 79.294738769531 0.000978 0.000978 0.999999
104.991516113281 -9.046920776367 79.294738769531 0.000978 0.000978 0.999999
133.616592407227 107.138595581055 79.294746398926 0.000978 0.000978 0.999999
124.906219482422 91.451499938965 79.294746398926 0.000978 0.000978 0.999999
144.555282592773 230.964508056641 79.294754028320 0.000978 0.000978 0.999999
134.344711303711 126.300415039063 79.294746398926 0.000978 0.000978 0.999999
120.810073852539 2.339662551880 79.294738769531 0.000978 0.000978 0.999999
144.606201171875 203.832153320313 79.294746398926 0.000978 0.000978 0.999999
144.355224609375 240.055053710938 79.294754028320 0.000978 0.000978 0.999999
121.057228088379 20.432027816772 79.294738769531 0.000978 0.000978 0.999999
131.156860351563 160.201797485352 79.294746398926 0.000978 0.000978 0.999999
128.413742065430 147.125396728516 79.294746398926 0.000978 0.000978 0.999999
131.467056274414 146.630203247070 79.294746398926 0.000978 0.000978 0.999999
127.949943542480 101.529541015625 79.294746398926 0.000978 0.000978 0.999999
128.010848999023 51.087997436523 79.294738769531 0.000978 0.000978 0.999999
145.236389160156 199.540100097656 79.294746398926 0.000978 0.000978 0.999999
110.208892822266 -27.561939239502 79.294738769531 0.000978 0.000978 0.999999
147.159759521484 195.851516723633 79.294746398926 0.000978 0.000978 0.999999
143.494384765625 192.804687500000 79.294746398926 0.000978 0.000978 0.999999
117.462249755859 26.413742065430 79.294738769531 0.000978 0.000978 0.999999
170.857238769531 392.734069824219 79.294761657715 0.000978 0.000978 0.999999
156.535598754883 275.813659667969 79.294754028320 0.000978 0.000978 0.999999
138.267364501953 204.994476318359 79.294754028320 0.000978 0.000978 0.999999
110.423057556152 -6.705387115479 79.294738769531 0.000978 0.000978 0.999999
142.348327636719 164.544891357422 79.294746398926 0.000978 0.000978 0.999999
114.178085327148 2.768390655518 79.294738769531 0.000978 0.000978 0.999999
113.983444213867 -11.527198791504 79.294738769531 0.000978 0.000978 0.999999
122.075004577637 34.275928497314 79.294738769531 0.000978 0.000978 0.999999
108.240386962891 25.950515747070 79.294738769531 0.000978 0.000978 0.999999
167.159149169922 367.431945800781 79.294761657715 0.000978 0.000978 0.999999
140.276672363281 185.496948242188 79.294746398926 0.000978 0.000978 0.999999
121.711608886719 88.472915649414 79.294746398926 0.000978 0.000978 0.999999
129.130096435547 57.615345001221 79.294746398926 0.000978 0.000978 0.999999
139.612457275391 203.132446289063 79.294754028320 0.000978 0.000978 0.999999
148.258132934570 264.951812744141 79.294754028320 0.000978 0.000978 0.999999
112.145439147949 13.513813018799 79.294738769531 0.000978 0.000978 0.999999
117.650413513184 -12.899644851685 79.294738769531 0.000978 0.000978 0.999999
124.158233642578 15.303646087646 79.294738769531 0.000978 0.000978 0.999999
125.699752807617 62.395851135254 79.294746398926 0.000978 0.000978 0.999999
108.746765136719 -4.801143646240 79.294738769531 0.000978 0.000978 0.999999
104.243461608887 -19.613901138306 79.294738769531 0.000978 0.000978 0.999999
118.726638793945 87.711898803711 79.294746398926 0.000978 0.000978 0.999999
172.473297119141 402.391723632813 79.294761657715 0.000978 0.000978 0.999999
150.125762939453 219.084472656250 79.294754028320 0.000978 0.000978 0.999999
137.461456298828 202.272476196289 79.294754028320 0.000978 0.000978 0.999999
165.515457153320 353.529693603516 79.294754028320 0.000978 0.000978 0.999999
115.700233459473 55.135276794434 79.294746398926 0.000978 0.000978 0.999999
125.304924011230 23.402721405029 79.294738769531 0.000978 0.000978 0.999999
101.177223205566 -17.449718475342 79.294738769531 0.000978 0.000978 0.999999
108.945793151855 -14.339836120605 79.294738769531 0.000978 0.000978 0.999999
95.259696960449 -43.688915252686 79.294738769531 0.000978 0.000978 0.999999
101.381462097168 -39.479812622070 79.294738769531 0.000978 0.000978 0.999999
111.469932556152 -16.145315170288 79.294738769531 0.000978 0.000978 0.999999
136.707321166992 126.718269348145 79.294746398926 0.000978 0.000978 0.999999
105.536674499512 -26.742519378662 79.294738769531 0.000978 0.000978 0.999999
133.475463867188 172.911911010742 79.294746398926 0.000978 0.000978 0.999999
127.847671508789 94.759269714355 79.294746398926 0.000978 0.000978 0.999999
113.693191528320 38.339714050293 79.294746398926 0.000978 0.000978 0.999999
137.784729003906 174.962417602539 79.294746398926 0.000978 0.000978 0.999999
122.419776916504 56.641197204590 79.294746398926 0.000978 0.000978 0.999999
119.649986267090 19.067062377930 79.294738769531 0.000978 0.000978 0.999999
131.177520751953 149.537628173828 79.294746398926 0.000978 0.000978 0.999999
115.482437133789 -14.682502746582 79.294738769531 0.000978 0.000978 0.999999
136.745437622070 150.235961914063 79.294746398926 0.000978 0.000978 0.999999
129.332046508789 105.537780761719 79.294746398926 0.000978 0.000978 0.999999
117.924369812012 64.980514526367 79.294746398926 0.000978 0.000978 0.999999
111.248939514160 -28.809513092041 79.294738769531 0.000978 0.000978 0.999999
116.401168823242 -15.768287658691 79.294738769531 0.000978 0.000978 0.999999
117.364540100098 45.478240966797 79.294746398926 0.000978 0.000978 0.999999
133.117309570313 133.564514160156 79.294746398926 0.000978 0.000978 0.999999
140.685958862305 220.007461547852 79.294754028320 0.000978 0.000978 0.999999
134.835800170898 110.662002563477 79.294746398926 0.000978 0.000978 0.999999
158.763076782227 285.597595214844 79.294754028320 0.000978 0.000978 0.999999
138.014938354492 142.427093505859 79.294746398926 0.000978 0.000978 0.999999
138.218307495117 170.176116943359 79.294746398926 0.000978 0.000978 0.999999
128.873138427734 153.901550292969 79.294746398926 0.000978 0.000978 0.999999
123.893173217773 125.693321228027 79.294746398926 0.000978 0.000978 0.999999
137.795059204102 234.427032470703 79.294746398926 0.000978 0.000978 0.999999
155.830062866211 318.529022216797 79.294754028320 0.000978 0.000978 0.999999
162.850463867188 373.132385253906 79.294761657715 0.000978 0.000978 0.999999
159.165893554688 364.565368652344 79.294754028320 0.000978 0.000978 0.999999
145.859252929688 259.168701171875 79.294754028320 0.000978 0.000978 0.999999
149.678237915039 282.298309326172 79.294754028320 0.000978 0.000978 0.999999
132.909698486328 182.254882812500 79.294746398926 0.000978 0.000978 0.999999
128.120223999023 170.973327636719 79.294746398926 0.000978 0.000978 0.999999
165.683441162109 373.469238281250 79.294761657715 0.000978 0.000978 0.999999
164.527038574219 378.068847656250 79.294761657715 0.000978 0.000978 0.999999
169.243576049805 402.115661621094 79.294761657715 0.000978 0.000978 0.999999
150.600738525391 315.158752441406 79.294746398926 0.000978 0.000978 0.999999
145.955657958984 283.294494628906 79.294746398926 0.000978 0.000978 0.999999
