//X Y Z Nx Ny Nz
618
-168.788208007813 19.595737457275 47.816040039063 0.052343 0.998629 0.001026
-129.095886230469 17.515554428101 -18.910736083984 0.052343 0.998629 0.001026
-168.688522338867 19.590517044067 -45.762245178223 0.052343 0.998629 0.001026
-184.835449218750 20.436740875244 15.119262695313 0.052343 0.998629 0.001026
-72.620727539063 14.555824279785 -177.100769042969 0.052343 0.998629 0.001026
-244.857803344727 23.582376480103 55.740524291992 0.052343 0.998629 0.001026
-103.731094360352 16.186239242554 58.973464965820 0.052343 0.998629 0.001026
-62.918289184570 14.047338485718 -124.744125366211 0.052343 0.998629 0.001026
-200.839569091797 21.275485992432 -92.628295898438 0.052343 0.998629 0.001026
2.204589843750 10.634389877319 -70.507316589355 0.052343 0.998629 0.001026
-163.128326416016 19.299119949341 -15.422012329102 0.052343 0.998629 0.001026
-155.778335571289 18.913928985596 -150.704391479492 0.052343 0.998629 0.001026
-92.246795654297 15.584379196167 -84.753273010254 0.052343 0.998629 0.001026
-134.515411376953 17.799581527710 -69.029174804688 0.052343 0.998629 0.001026
-221.437973022461 22.354995727539 33.505584716797 0.052343 0.998629 0.001026
44.122413635254 8.437572479248 -121.971603393555 0.052343 0.998629 0.001026
-115.073638916016 16.780677795410 36.938522338867 0.052343 0.998629 0.001026
-216.381500244141 22.089988708496 168.465301513672 0.052343 0.998629 0.001026
-125.570129394531 17.330780029297 -97.262702941895 0.052343 0.998629 0.001026
-117.451675415039 16.905311584473 -106.740119934082 0.052343 0.998629 0.001026
20.388122558594 9.681432723999 -95.834640502930 0.052343 0.998629 0.001026
-137.039047241211 17.931835174561 43.143722534180 0.052343 0.998629 0.001026
-129.624496459961 17.543266296387 -174.700866699219 0.052343 0.998629 0.001026
-160.329879760742 19.152454376221 89.856796264648 0.052343 0.998629 0.001026
-191.477874755859 20.784854888916 22.671096801758 0.052343 0.998629 0.001026
-151.409790039063 18.684982299805 -122.195114135742 0.052343 0.998629 0.001026
-207.767120361328 21.638530731201 155.381027221680 0.052343 0.998629 0.001026
-191.817718505859 20.802667617798 -36.785202026367 0.052343 0.998629 0.001026
-238.350646972656 23.241359710693 -136.352416992188 0.052343 0.998629 0.001026
-217.890594482422 22.169095993042 -175.178009033203 0.052343 0.998629 0.001026
-219.155120849609 22.235366821289 -152.454315185547 0.052343 0.998629 0.001026
-182.653778076172 20.322402954102 35.125427246094 0.052343 0.998629 0.001026
-246.862747192383 23.687454223633 9.533264160156 0.052343 0.998629 0.001026
-60.171966552734 13.903408050537 -83.602684020996 0.052343 0.998629 0.001026
-138.361053466797 18.001125335693 -107.131919860840 0.052343 0.998629 0.001026
-120.952987670898 17.088806152344 -33.418243408203 0.052343 0.998629 0.001026
-217.314300537109 22.138881683350 79.060668945313 0.052343 0.998629 0.001026
-159.367355346680 19.102016448975 -36.389160156250 0.052343 0.998629 0.001026
-241.328903198242 23.397438049316 -57.761108398438 0.052343 0.998629 0.001026
-106.120925903320 16.311492919922 -104.125602722168 0.052343 0.998629 0.001026
-83.585716247559 15.130468368530 -42.802398681641 0.052343 0.998629 0.001026
-103.887725830078 16.194448471069 34.601791381836 0.052343 0.998629 0.001026
-175.901458740234 19.968524932861 83.259552001953 0.052343 0.998629 0.001026
-152.754302978516 18.755435943604 54.085571289063 0.052343 0.998629 0.001026
-80.824699401855 14.985768318176 -3.717864990234 0.052343 0.998629 0.001026
-233.047256469727 22.963422775269 -179.721191406250 0.052343 0.998629 0.001026
-112.790550231934 16.661029815674 -24.156051635742 0.052343 0.998629 0.001026
-203.792755126953 21.430248260498 33.535644531250 0.052343 0.998629 0.001026
-118.297859191895 16.949653625488 -1.446136474609 0.052343 0.998629 0.001026
-104.486381530762 16.225833892822 -179.477569580078 0.052343 0.998629 0.001026
24.250877380371 9.478994369507 -80.205642700195 0.052343 0.998629 0.001026
-215.682281494141 22.053359985352 -134.479064941406 0.052343 0.998629 0.001026
-199.767623901367 21.219299316406 70.747207641602 0.052343 0.998629 0.001026
-239.852081298828 23.320043563843 -85.225212097168 0.052343 0.998629 0.001026
-79.531661987305 14.918001174927 31.147125244141 0.052343 0.998629 0.001026
-195.284194946289 20.984346389771 -195.359024047852 0.052343 0.998629 0.001026
-65.591209411621 14.187421798706 -135.796325683594 0.052343 0.998629 0.001026
20.487659454346 9.676218986511 -146.805007934570 0.052343 0.998629 0.001026
-82.238296508789 15.059857368469 -116.952529907227 0.052343 0.998629 0.001026
69.807441711426 7.091477870941 -124.666175842285 0.052343 0.998629 0.001026
-254.148529052734 24.069276809692 172.043212890625 0.052343 0.998629 0.001026
45.769016265869 8.351279258728 -136.859802246094 0.052343 0.998629 0.001026
-159.118835449219 19.088996887207 -159.957504272461 0.052343 0.998629 0.001026
-210.037963867188 21.757556915283 -188.306320190430 0.052343 0.998629 0.001026
-233.497848510742 22.987026214600 46.364944458008 0.052343 0.998629 0.001026
-217.543319702148 22.150897979736 -191.086120605469 0.052343 0.998629 0.001026
-244.578643798828 23.567749023438 6.873611450195 0.052343 0.998629 0.001026
-213.494323730469 21.938697814941 -199.990676879883 0.052343 0.998629 0.001026
-239.124298095703 23.281904220581 -147.864715576172 0.052343 0.998629 0.001026
-60.692565917969 13.930690765381 -62.580902099609 0.052343 0.998629 0.001026
-227.617828369141 22.678876876831 -104.353759765625 0.052343 0.998629 0.001026
-146.258499145508 18.415008544922 -27.657623291016 0.052343 0.998629 0.001026
-183.967437744141 20.391250610352 5.823562622070 0.052343 0.998629 0.001026
19.671249389648 9.719001770020 -58.050834655762 0.052343 0.998629 0.001026
14.279606819153 10.001569747925 -154.553268432617 0.052343 0.998629 0.001026
48.101650238037 8.229028701782 -99.346359252930 0.052343 0.998629 0.001026
-161.980087280273 19.238941192627 8.371566772461 0.052343 0.998629 0.001026
-128.071121215820 17.461854934692 -163.796783447266 0.052343 0.998629 0.001026
-166.069366455078 19.453256607056 -87.939498901367 0.052343 0.998629 0.001026
-134.065979003906 17.776031494141 -139.980377197266 0.052343 0.998629 0.001026
-146.222106933594 18.413108825684 -152.244689941406 0.052343 0.998629 0.001026
-212.406784057617 21.881698608398 -92.239303588867 0.052343 0.998629 0.001026
-80.610595703125 14.974554061890 -143.290817260742 0.052343 0.998629 0.001026
-73.449440002441 14.599245071411 21.776245117188 0.052343 0.998629 0.001026
-174.095321655273 19.873878479004 -85.141860961914 0.052343 0.998629 0.001026
-227.240127563477 22.659084320068 -203.395339965820 0.052343 0.998629 0.001026
-177.324279785156 20.043090820313 133.957565307617 0.052343 0.998629 0.001026
-107.254623413086 16.370906829834 -134.974365234375 0.052343 0.998629 0.001026
-115.603919982910 16.808469772339 -15.390243530273 0.052343 0.998629 0.001026
-89.463790893555 15.438528060913 -91.473434448242 0.052343 0.998629 0.001026
-105.140312194824 16.260097503662 -34.398300170898 0.052343 0.998629 0.001026
-189.094238281250 20.659938812256 -86.812126159668 0.052343 0.998629 0.001026
-14.210578918457 11.494672775269 -70.058067321777 0.052343 0.998629 0.001026
-108.206420898438 16.420782089233 18.052566528320 0.052343 0.998629 0.001026
-121.713951110840 17.128688812256 -92.038604736328 0.052343 0.998629 0.001026
-201.517288208008 21.310993194580 153.630493164063 0.052343 0.998629 0.001026
-51.593162536621 13.453816413879 -154.130905151367 0.052343 0.998629 0.001026
42.706321716309 8.511787414551 -139.719284057617 0.052343 0.998629 0.001026
-239.798980712891 23.317256927490 -2.729339599609 0.052343 0.998629 0.001026
-129.874420166016 17.556350708008 88.336318969727 0.052343 0.998629 0.001026
-116.670532226563 16.864376068115 -131.694442749023 0.052343 0.998629 0.001026
-177.349639892578 20.044422149658 98.506210327148 0.052343 0.998629 0.001026
-192.833084106445 20.855888366699 -165.887435913086 0.052343 0.998629 0.001026
-109.557922363281 16.491611480713 24.222976684570 0.052343 0.998629 0.001026
-246.181106567383 23.651721954346 149.907653808594 0.052343 0.998629 0.001026
-31.078727722168 12.378693580627 -40.246658325195 0.052343 0.998629 0.001026
-87.288734436035 15.324532508850 12.786117553711 0.052343 0.998629 0.001026
-203.018310546875 21.389667510986 -56.253631591797 0.052343 0.998629 0.001026
-87.061721801758 15.312642097473 -108.529891967773 0.052343 0.998629 0.001026
-88.084899902344 15.366260528564 -55.798904418945 0.052343 0.998629 0.001026
-236.296722412109 23.133720397949 -187.014022827148 0.052343 0.998629 0.001026
-60.119407653809 13.900650024414 -19.812629699707 0.052343 0.998629 0.001026
-136.502075195313 17.903692245483 83.843765258789 0.052343 0.998629 0.001026
-139.377166748047 18.054370880127 34.657913208008 0.052343 0.998629 0.001026
-116.135360717773 16.836326599121 -140.483886718750 0.052343 0.998629 0.001026
-41.604064941406 12.930303573608 -33.133094787598 0.052343 0.998629 0.001026
-108.277114868164 16.424495697021 -141.537139892578 0.052343 0.998629 0.001026
22.850135803223 9.552404403687 -89.028503417969 0.052343 0.998629 0.001026
-225.280303955078 22.556373596191 -161.412582397461 0.052343 0.998629 0.001026
-102.340675354004 16.113376617432 -93.237754821777 0.052343 0.998629 0.001026
-21.497795104980 11.876577377319 -14.174377441406 0.052343 0.998629 0.001026
-181.126098632813 20.242336273193 138.018386840820 0.052343 0.998629 0.001026
-18.385200500488 11.713455200195 -37.140396118164 0.052343 0.998629 0.001026
-192.290618896484 20.827445983887 78.174758911133 0.052343 0.998629 0.001026
-224.137710571289 22.496488571167 -55.145980834961 0.052343 0.998629 0.001026
-92.810317993164 15.613912582397 -112.755218505859 0.052343 0.998629 0.001026
-0.427810668945 10.772351264954 -130.631484985352 0.052343 0.998629 0.001026
-225.037811279297 22.543649673462 167.622924804688 0.052343 0.998629 0.001026
-94.375442504883 15.695939064026 -155.695053100586 0.052343 0.998629 0.001026
-184.814712524414 20.435651779175 50.997039794922 0.052343 0.998629 0.001026
-211.809280395508 21.850381851196 -52.485191345215 0.052343 0.998629 0.001026
-98.146896362305 15.893589019775 -62.420318603516 0.052343 0.998629 0.001026
-175.887771606445 19.967815399170 -22.058013916016 0.052343 0.998629 0.001026
-193.542129516602 20.893043518066 -58.614379882813 0.052343 0.998629 0.001026
-103.184295654297 16.157587051392 -34.924339294434 0.052343 0.998629 0.001026
-160.855834960938 19.180019378662 74.865173339844 0.052343 0.998629 0.001026
-214.490463256836 21.990898132324 -69.097549438477 0.052343 0.998629 0.001026
-8.092638015747 11.174049377441 -147.551910400391 0.052343 0.998629 0.001026
-136.227767944336 17.889326095581 -149.974166870117 0.052343 0.998629 0.001026
-43.942886352539 13.052875518799 -36.334289550781 0.052343 0.998629 0.001026
-117.672271728516 16.916875839233 -167.115921020508 0.052343 0.998629 0.001026
-158.898315429688 19.077440261841 -131.563552856445 0.052343 0.998629 0.001026
-4.976387023926 11.010726928711 -28.098991394043 0.052343 0.998629 0.001026
-245.656524658203 23.624233245850 144.553497314453 0.052343 0.998629 0.001026
-41.723941802979 12.936591148376 -140.393997192383 0.052343 0.998629 0.001026
18.131870269775 9.799679756165 -150.543182373047 0.052343 0.998629 0.001026
-123.045166015625 17.198448181152 18.163284301758 0.052343 0.998629 0.001026
55.765487670898 7.827383995056 -103.755691528320 0.052343 0.998629 0.001026
-200.870208740234 21.277095794678 -142.561584472656 0.052343 0.998629 0.001026
-246.399093627930 23.663148880005 140.293029785156 0.052343 0.998629 0.001026
-221.360580444336 22.350948333740 -140.467010498047 0.052343 0.998629 0.001026
-236.102996826172 23.123567581177 -177.728012084961 0.052343 0.998629 0.001026
-186.887069702148 20.544256210327 84.259613037109 0.052343 0.998629 0.001026
-125.312744140625 17.317293167114 -95.053520202637 0.052343 0.998629 0.001026
-75.721908569336 14.718343734741 -28.031944274902 0.052343 0.998629 0.001026
-73.959930419922 14.626007080078 -151.920394897461 0.052343 0.998629 0.001026
-203.481872558594 21.413965225220 -143.697875976563 0.052343 0.998629 0.001026
-168.430679321289 19.577011108398 -167.189788818359 0.052343 0.998629 0.001026
-232.069366455078 22.912170410156 -91.125816345215 0.052343 0.998629 0.001026
-198.728897094727 21.164867401123 -48.019119262695 0.052343 0.998629 0.001026
-104.297286987305 16.215911865234 27.630371093750 0.052343 0.998629 0.001026
-207.379287719727 21.618219375610 -100.253547668457 0.052343 0.998629 0.001026
-247.543167114258 23.723110198975 87.462203979492 0.052343 0.998629 0.001026
-232.914962768555 22.956481933594 -35.440673828125 0.052343 0.998629 0.001026
-245.051086425781 23.592510223389 -14.490783691406 0.052343 0.998629 0.001026
-253.190841674805 24.019090652466 132.436737060547 0.052343 0.998629 0.001026
-50.525886535645 13.397878646851 -101.583168029785 0.052343 0.998629 0.001026
-124.949127197266 17.298225402832 88.609939575195 0.052343 0.998629 0.001026
-211.008163452148 21.808385848999 164.387008666992 0.052343 0.998629 0.001026
-84.326347351074 15.169290542603 -176.985076904297 0.052343 0.998629 0.001026
-88.103790283203 15.367248535156 3.614273071289 0.052343 0.998629 0.001026
-203.810562133789 21.431179046631 123.632537841797 0.052343 0.998629 0.001026
66.868103027344 7.245520591736 -90.589881896973 0.052343 0.998629 0.001026
-208.042907714844 21.652988433838 91.444000244141 0.052343 0.998629 0.001026
-118.315864562988 16.950593948364 65.244033813477 0.052343 0.998629 0.001026
-79.668601989746 14.925178527832 1.016891479492 0.052343 0.998629 0.001026
-65.420242309570 14.178460121155 -115.555435180664 0.052343 0.998629 0.001026
-64.237136840820 14.116453170776 -43.190322875977 0.052343 0.998629 0.001026
-240.283859252930 23.342662811279 132.903320312500 0.052343 0.998629 0.001026
-227.273025512695 22.660804748535 -95.612663269043 0.052343 0.998629 0.001026
-135.174850463867 17.834142684937 -62.884918212891 0.052343 0.998629 0.001026
-207.973785400391 21.649368286133 50.524566650391 0.052343 0.998629 0.001026
-136.471374511719 17.902091979980 -95.397262573242 0.052343 0.998629 0.001026
-115.115951538086 16.782894134521 64.087356567383 0.052343 0.998629 0.001026
-233.645385742188 22.994760513306 21.556320190430 0.052343 0.998629 0.001026
88.302108764648 6.122213840485 -135.029891967773 0.052343 0.998629 0.001026
-236.638992309570 23.151657104492 -178.212402343750 0.052343 0.998629 0.001026
-228.782424926758 22.739906311035 -6.473617553711 0.052343 0.998629 0.001026
-38.964897155762 12.791992187500 -72.598869323730 0.052343 0.998629 0.001026
-196.911849975586 21.069639205933 -35.228515625000 0.052343 0.998629 0.001026
-98.699905395508 15.922575950623 -180.294708251953 0.052343 0.998629 0.001026
-68.822921752930 14.356788635254 -132.331298828125 0.052343 0.998629 0.001026
-198.378631591797 21.146514892578 -105.946296691895 0.052343 0.998629 0.001026
-169.041748046875 19.609031677246 -75.378913879395 0.052343 0.998629 0.001026
-243.313949584961 23.501478195190 -184.478469848633 0.052343 0.998629 0.001026
-122.616981506348 17.176006317139 25.429641723633 0.052343 0.998629 0.001026
-140.723571777344 18.124931335449 80.256072998047 0.052343 0.998629 0.001026
-159.476959228516 19.107757568359 13.096160888672 0.052343 0.998629 0.001026
-94.694892883301 15.712675094604 -22.073516845703 0.052343 0.998629 0.001026
-248.438003540039 23.770004272461 95.279724121094 0.052343 0.998629 0.001026
-112.950820922852 16.669429779053 -55.516777038574 0.052343 0.998629 0.001026
-248.179748535156 23.756473541260 57.927124023438 0.052343 0.998629 0.001026
-45.452262878418 13.131978988647 -32.830795288086 0.052343 0.998629 0.001026
-238.370910644531 23.242412567139 26.531417846680 0.052343 0.998629 0.001026
-202.771575927734 21.376741409302 -161.825729370117 0.052343 0.998629 0.001026
-105.070625305176 16.256444931030 -39.953147888184 0.052343 0.998629 0.001026
-246.988784790039 23.694051742554 135.915466308594 0.052343 0.998629 0.001026
-205.366439819336 21.512727737427 -59.677940368652 0.052343 0.998629 0.001026
-81.851707458496 15.039590835571 14.524978637695 0.052343 0.998629 0.001026
-190.354888916016 20.726005554199 -101.537368774414 0.052343 0.998629 0.001026
-187.884338378906 20.596532821655 -146.459747314453 0.052343 0.998629 0.001026
-172.271194458008 19.778278350830 -29.682937622070 0.052343 0.998629 0.001026
10.209096908569 10.214895248413 -135.435226440430 0.052343 0.998629 0.001026
-83.609107971191 15.131694793701 -40.554504394531 0.052343 0.998629 0.001026
54.583549499512 7.889327049255 -108.412002563477 0.052343 0.998629 0.001026
-196.359924316406 21.040710449219 46.844879150391 0.052343 0.998629 0.001026
-209.983032226563 21.754665374756 90.869705200195 0.052343 0.998629 0.001026
-204.464935302734 21.465488433838 -193.882019042969 0.052343 0.998629 0.001026
-130.712585449219 17.600280761719 -7.495193481445 0.052343 0.998629 0.001026
-196.316513061523 21.038440704346 -38.943283081055 0.052343 0.998629 0.001026
-2.232025146484 10.866903305054 -52.190162658691 0.052343 0.998629 0.001026
-202.968338012695 21.387042999268 53.461135864258 0.052343 0.998629 0.001026
-212.949203491211 21.910121917725 -36.670089721680 0.052343 0.998629 0.001026
-151.767044067383 18.703697204590 4.385223388672 0.052343 0.998629 0.001026
-94.633537292480 15.709465980530 -133.316131591797 0.052343 0.998629 0.001026
-155.801803588867 18.915151596069 4.038711547852 0.052343 0.998629 0.001026
-225.083953857422 22.546070098877 139.953720092773 0.052343 0.998629 0.001026
-157.841674804688 19.022064208984 -166.452423095703 0.052343 0.998629 0.001026
-135.877426147461 17.870960235596 -11.793472290039 0.052343 0.998629 0.001026
-134.758636474609 17.812332153320 -136.892517089844 0.052343 0.998629 0.001026
-245.533584594727 23.617788314819 147.220718383789 0.052343 0.998629 0.001026
-225.571487426758 22.571628570557 -65.021926879883 0.052343 0.998629 0.001026
-67.476440429688 14.286216735840 -21.789367675781 0.052343 0.998629 0.001026
-204.082519531250 21.445430755615 144.559906005859 0.052343 0.998629 0.001026
-158.067123413086 19.033874511719 -34.372802734375 0.052343 0.998629 0.001026
-153.003753662109 18.768507003784 111.872558593750 0.052343 0.998629 0.001026
-129.790618896484 17.551969528198 -127.851959228516 0.052343 0.998629 0.001026
-64.948112487793 14.153715133667 -81.306709289551 0.052343 0.998629 0.001026
-228.668762207031 22.733951568604 -45.580947875977 0.052343 0.998629 0.001026
-121.294807434082 17.106716156006 -31.640876770020 0.052343 0.998629 0.001026
-172.556762695313 19.793252944946 -195.316711425781 0.052343 0.998629 0.001026
-211.099533081055 21.813179016113 59.167465209961 0.052343 0.998629 0.001026
-204.418716430664 21.463066101074 -178.773315429688 0.052343 0.998629 0.001026
70.674255371094 7.046050071716 -129.522933959961 0.052343 0.998629 0.001026
-231.046798706055 22.858572006226 52.208877563477 0.052343 0.998629 0.001026
-130.266265869141 17.576894760132 -78.584823608398 0.052343 0.998629 0.001026
-219.377212524414 22.247007369995 -174.204055786133 0.052343 0.998629 0.001026
-124.842658996582 17.292657852173 -131.945419311523 0.052343 0.998629 0.001026
-99.833709716797 15.981988906860 -9.132598876953 0.052343 0.998629 0.001026
-219.735488891602 22.265773773193 -16.061386108398 0.052343 0.998629 0.001026
-188.692718505859 20.638885498047 127.283157348633 0.052343 0.998629 0.001026
43.886936187744 8.449913024902 -105.956542968750 0.052343 0.998629 0.001026
-222.193359375000 22.394592285156 -120.092788696289 0.052343 0.998629 0.001026
35.945823669434 8.866090774536 -148.240066528320 0.052343 0.998629 0.001026
-196.203323364258 21.032505035400 6.686111450195 0.052343 0.998629 0.001026
-44.250877380371 13.069015502930 7.560546875000 0.052343 0.998629 0.001026
-213.170166015625 21.921693801880 122.174087524414 0.052343 0.998629 0.001026
-77.323791503906 14.802297592163 -76.576660156250 0.052343 0.998629 0.001026
-105.349273681641 16.271045684814 11.977386474609 0.052343 0.998629 0.001026
-143.739456176758 18.282999038696 -181.194671630859 0.052343 0.998629 0.001026
-170.187103271484 19.669061660767 -139.996597290039 0.052343 0.998629 0.001026
-69.926361083984 14.414608001709 37.147918701172 0.052343 0.998629 0.001026
-206.610534667969 21.577919006348 129.090637207031 0.052343 0.998629 0.001026
-192.392608642578 20.832794189453 15.642135620117 0.052343 0.998629 0.001026
-80.143424987793 14.950065612793 -29.877487182617 0.052343 0.998629 0.001026
-225.718627929688 22.579336166382 50.775970458984 0.052343 0.998629 0.001026
-209.996551513672 21.755374908447 96.648574829102 0.052343 0.998629 0.001026
-213.609542846680 21.944736480713 -205.673599243164 0.052343 0.998629 0.001026
24.146461486816 9.484466552734 -84.770874023438 0.052343 0.998629 0.001026
-168.041702270508 19.556617736816 4.712203979492 0.052343 0.998629 0.001026
4.074872970581 10.536375045776 -131.120727539063 0.052343 0.998629 0.001026
-241.163375854492 23.388772964478 -204.633636474609 0.052343 0.998629 0.001026
-26.099311828613 12.117732048035 -15.787956237793 0.052343 0.998629 0.001026
-102.603538513184 16.127151489258 -69.046173095703 0.052343 0.998629 0.001026
-227.055786132813 22.649415969849 -16.180923461914 0.052343 0.998629 0.001026
-79.472518920898 14.914905548096 -35.682914733887 0.052343 0.998629 0.001026
-201.516235351563 21.310937881470 135.588134765625 0.052343 0.998629 0.001026
-105.611236572266 16.284776687622 -5.732147216797 0.052343 0.998629 0.001026
52.435504913330 8.001900672913 -91.594535827637 0.052343 0.998629 0.001026
-72.782897949219 14.564319610596 -90.473121643066 0.052343 0.998629 0.001026
-206.442123413086 21.569097518921 8.827377319336 0.052343 0.998629 0.001026
-150.044418334961 18.613426208496 -133.353820800781 0.052343 0.998629 0.001026
-236.570938110352 23.148075103760 159.167922973633 0.052343 0.998629 0.001026
-167.103088378906 19.507427215576 -24.361175537109 0.052343 0.998629 0.001026
-48.398437500000 13.286383628845 -79.523986816406 0.052343 0.998629 0.001026
-139.918670654297 18.082748413086 96.469375610352 0.052343 0.998629 0.001026
-235.317535400391 23.082393646240 40.413421630859 0.052343 0.998629 0.001026
-207.938842773438 21.647546768188 -132.690429687500 0.052343 0.998629 0.001026
-172.464736938477 19.788429260254 -200.356079101563 0.052343 0.998629 0.001026
-154.455169677734 18.844573974609 74.216186523438 0.052343 0.998629 0.001026
-179.979263305664 20.182239532471 -25.362854003906 0.052343 0.998629 0.001026
-213.227203369141 21.924697875977 -158.978759765625 0.052343 0.998629 0.001026
-233.728698730469 22.999122619629 94.676727294922 0.052343 0.998629 0.001026
-82.571189880371 15.077302932739 -107.192779541016 0.052343 0.998629 0.001026
-57.768714904785 13.777459144592 -76.122703552246 0.052343 0.998629 0.001026
-156.144424438477 18.933115005493 -189.032257080078 0.052343 0.998629 0.001026
35.354885101318 8.897057533264 -96.460586547852 0.052343 0.998629 0.001026
-214.752792358398 22.004636764526 135.040725708008 0.052343 0.998629 0.001026
-64.822288513184 14.147123336792 -114.699356079102 0.052343 0.998629 0.001026
-93.555572509766 15.652969360352 -101.965003967285 0.052343 0.998629 0.001026
-242.793395996094 23.474180221558 147.163024902344 0.052343 0.998629 0.001026
-52.716197967529 13.512670516968 -131.971282958984 0.052343 0.998629 0.001026
-179.147552490234 20.138647079468 77.340423583984 0.052343 0.998629 0.001026
-185.581634521484 20.475839614868 139.677200317383 0.052343 0.998629 0.001026
-177.716140747070 20.063629150391 98.516265869141 0.052343 0.998629 0.001026
-120.072639465332 17.042671203613 -103.072540283203 0.052343 0.998629 0.001026
-55.010066986084 13.632886886597 -127.843704223633 0.052343 0.998629 0.001026
-131.294021606445 17.630758285522 -111.421478271484 0.052343 0.998629 0.001026
-33.373603820801 12.498964309692 -45.310646057129 0.052343 0.998629 0.001026
-231.602966308594 22.887727737427 -131.204254150391 0.052343 0.998629 0.001026
-216.282882690430 22.084835052490 -68.289505004883 0.052343 0.998629 0.001026
-196.257415771484 21.035339355469 41.161422729492 0.052343 0.998629 0.001026
49.633972167969 8.148722648621 -94.094131469727 0.052343 0.998629 0.001026
-215.977874755859 22.068851470947 -101.197860717773 0.052343 0.998629 0.001026
-96.778854370117 15.821890830994 -12.844482421875 0.052343 0.998629 0.001026
-208.549407958984 21.679546356201 -192.276641845703 0.052343 0.998629 0.001026
-228.999053955078 22.751264572144 -129.761108398438 0.052343 0.998629 0.001026
-140.128875732422 18.093772888184 -145.099822998047 0.052343 0.998629 0.001026
-192.273117065430 20.826530456543 54.276473999023 0.052343 0.998629 0.001026
-149.249786376953 18.571771621704 73.099121093750 0.052343 0.998629 0.001026
-161.512405395508 19.214431762695 13.390960693359 0.052343 0.998629 0.001026
-198.529495239258 21.154422760010 -148.644958496094 0.052343 0.998629 0.001026
6.499343872070 10.409312248230 -86.162170410156 0.052343 0.998629 0.001026
-233.222076416016 22.972572326660 121.191528320313 0.052343 0.998629 0.001026
-248.152893066406 23.755067825317 -3.285324096680 0.052343 0.998629 0.001026
-110.505111694336 16.541261672974 -164.715606689453 0.052343 0.998629 0.001026
-186.492996215820 20.523609161377 11.229385375977 0.052343 0.998629 0.001026
-27.268135070801 12.178988456726 -21.665847778320 0.052343 0.998629 0.001026
12.078220367432 10.116936683655 -91.350494384766 0.052343 0.998629 0.001026
-157.327941894531 18.995130538940 52.303100585938 0.052343 0.998629 0.001026
-231.313446044922 22.872547149658 56.937316894531 0.052343 0.998629 0.001026
-193.079895019531 20.868816375732 -65.034667968750 0.052343 0.998629 0.001026
-216.793640136719 22.111598968506 11.316619873047 0.052343 0.998629 0.001026
50.958049774170 8.079331398010 -99.073928833008 0.052343 0.998629 0.001026
-238.756378173828 23.262624740601 -173.174072265625 0.052343 0.998629 0.001026
-31.092277526855 12.379403114319 -25.238121032715 0.052343 0.998629 0.001026
-196.417510986328 21.043737411499 -111.530937194824 0.052343 0.998629 0.001026
-207.108581542969 21.604022979736 106.599777221680 0.052343 0.998629 0.001026
-243.446838378906 23.508426666260 132.975296020508 0.052343 0.998629 0.001026
-100.900306701660 16.037883758545 57.445953369141 0.052343 0.998629 0.001026
-125.136962890625 17.308073043823 67.009918212891 0.052343 0.998629 0.001026
-175.676086425781 19.956714630127 103.059707641602 0.052343 0.998629 0.001026
-226.666625976563 22.629016876221 71.782089233398 0.052343 0.998629 0.001026
-22.224704742432 11.914678573608 -140.039520263672 0.052343 0.998629 0.001026
21.793035507202 9.607808113098 -151.975784301758 0.052343 0.998629 0.001026
-133.939849853516 17.769424438477 -160.146911621094 0.052343 0.998629 0.001026
-61.306320190430 13.962856292725 -69.109489440918 0.052343 0.998629 0.001026
-228.950073242188 22.748680114746 172.136032104492 0.052343 0.998629 0.001026
-154.340957641602 18.838596343994 -86.703399658203 0.052343 0.998629 0.001026
-58.110549926758 13.795370101929 -6.584548950195 0.052343 0.998629 0.001026
-230.646636962891 22.837594985962 151.505111694336 0.052343 0.998629 0.001026
-243.973342895508 23.536035537720 -209.237854003906 0.052343 0.998629 0.001026
-105.487960815430 16.278316497803 -24.203887939453 0.052343 0.998629 0.001026
-107.994384765625 16.409679412842 -167.874572753906 0.052343 0.998629 0.001026
-13.668663024902 11.466276168823 -156.433868408203 0.052343 0.998629 0.001026
-235.033752441406 23.067527770996 -112.590324401855 0.052343 0.998629 0.001026
-200.383193969727 21.251558303833 118.365234375000 0.052343 0.998629 0.001026
-130.742446899414 17.601852416992 -143.636093139648 0.052343 0.998629 0.001026
-130.695358276367 17.599384307861 -95.983489990234 0.052343 0.998629 0.001026
-9.687984466553 11.257656097412 -117.551734924316 0.052343 0.998629 0.001026
-227.648437500000 22.680477142334 -73.613288879395 0.052343 0.998629 0.001026
-23.070346832275 11.958996772766 -121.209793090820 0.052343 0.998629 0.001026
-204.743255615234 21.480070114136 -114.325569152832 0.052343 0.998629 0.001026
-206.041534423828 21.548112869263 -130.197952270508 0.052343 0.998629 0.001026
-171.081085205078 19.715904235840 25.410079956055 0.052343 0.998629 0.001026
-15.307897567749 11.552184104919 -147.933044433594 0.052343 0.998629 0.001026
-101.744827270508 16.082153320313 -161.726577758789 0.052343 0.998629 0.001026
-69.086395263672 14.370595932007 -134.119995117188 0.052343 0.998629 0.001026
-249.229125976563 23.811466217041 115.910018920898 0.052343 0.998629 0.001026
95.560432434082 5.741820812225 -121.647933959961 0.052343 0.998629 0.001026
-233.404220581055 22.982116699219 122.605331420898 0.052343 0.998629 0.001026
-241.386047363281 23.400428771973 47.642181396484 0.052343 0.998629 0.001026
-177.131011962891 20.032976150513 -176.157592773438 0.052343 0.998629 0.001026
-123.035385131836 17.197940826416 -117.315979003906 0.052343 0.998629 0.001026
-220.038513183594 22.281654357910 45.577774047852 0.052343 0.998629 0.001026
-155.818054199219 18.916002273560 42.813796997070 0.052343 0.998629 0.001026
-183.491958618164 20.366331100464 22.067932128906 0.052343 0.998629 0.001026
-48.788974761963 13.306854248047 -167.719192504883 0.052343 0.998629 0.001026
-143.729492187500 18.282468795776 12.147277832031 0.052343 0.998629 0.001026
-237.569381713867 23.200410842896 -26.990219116211 0.052343 0.998629 0.001026
-147.923400878906 18.502269744873 -156.181030273438 0.052343 0.998629 0.001026
-223.187118530273 22.446676254272 -200.821548461914 0.052343 0.998629 0.001026
-26.394615173340 12.133214950562 -122.428115844727 0.052343 0.998629 0.001026
-209.453521728516 21.726917266846 40.432952880859 0.052343 0.998629 0.001026
-126.720886230469 17.391088485718 -61.152359008789 0.052343 0.998629 0.001026
-39.521453857422 12.821161270142 -81.752090454102 0.052343 0.998629 0.001026
-88.007820129395 15.362222671509 -64.793357849121 0.052343 0.998629 0.001026
-19.351242065430 11.764084815979 -97.349716186523 0.052343 0.998629 0.001026
-189.451171875000 20.678638458252 74.243453979492 0.052343 0.998629 0.001026
78.809158325195 6.619716644287 -98.570129394531 0.052343 0.998629 0.001026
-218.090423583984 22.179557800293 21.864868164063 0.052343 0.998629 0.001026
-115.546157836914 16.805444717407 -39.482788085938 0.052343 0.998629 0.001026
-95.929214477539 15.777361869812 25.098526000977 0.052343 0.998629 0.001026
-150.087661743164 18.615684509277 57.253814697266 0.052343 0.998629 0.001026
-67.394027709961 14.281901359558 -96.648353576660 0.052343 0.998629 0.001026
-125.924316406250 17.349338531494 -6.445449829102 0.052343 0.998629 0.001026
-9.123287200928 11.228059768677 -87.606338500977 0.052343 0.998629 0.001026
-107.538581848145 16.385791778564 -129.360443115234 0.052343 0.998629 0.001026
34.697017669678 8.931535720825 -107.254608154297 0.052343 0.998629 0.001026
-73.887054443359 14.622186660767 -134.454376220703 0.052343 0.998629 0.001026
-200.211914062500 21.242580413818 147.768951416016 0.052343 0.998629 0.001026
-116.713958740234 16.866643905640 14.051116943359 0.052343 0.998629 0.001026
81.887557983398 6.458385944366 -140.205764770508 0.052343 0.998629 0.001026
-208.581146240234 21.681207656860 -154.925323486328 0.052343 0.998629 0.001026
-134.809204101563 17.814979553223 -88.451942443848 0.052343 0.998629 0.001026
43.332317352295 8.478978157043 -79.123077392578 0.052343 0.998629 0.001026
-112.600524902344 16.651069641113 -19.807418823242 0.052343 0.998629 0.001026
-201.740142822266 21.322673797607 118.505340576172 0.052343 0.998629 0.001026
-126.494613647461 17.379234313965 -122.803939819336 0.052343 0.998629 0.001026
-240.227859497070 23.339742660522 -179.464752197266 0.052343 0.998629 0.001026
-103.999153137207 16.200296401978 -114.813659667969 0.052343 0.998629 0.001026
-241.576660156250 23.410427093506 -144.282928466797 0.052343 0.998629 0.001026
-226.534973144531 22.622116088867 90.333969116211 0.052343 0.998629 0.001026
-215.812149047852 22.060169219971 -179.246124267578 0.052343 0.998629 0.001026
-6.850292205811 11.108938217163 -103.970375061035 0.052343 0.998629 0.001026
-168.662261962891 19.589145660400 -141.267440795898 0.052343 0.998629 0.001026
-183.251525878906 20.353733062744 -29.565002441406 0.052343 0.998629 0.001026
-35.435340881348 12.607015609741 -67.416816711426 0.052343 0.998629 0.001026
-73.720680236816 14.613464355469 -54.845726013184 0.052343 0.998629 0.001026
5.423538208008 10.465695381165 -138.304718017578 0.052343 0.998629 0.001026
59.200927734375 7.647339820862 -81.258193969727 0.052343 0.998629 0.001026
-197.019287109375 21.075265884399 67.401931762695 0.052343 0.998629 0.001026
-193.770050048828 20.904977798462 103.702377319336 0.052343 0.998629 0.001026
-234.870483398438 23.058969497681 -69.271743774414 0.052343 0.998629 0.001026
-49.123908996582 13.324398994446 19.231155395508 0.052343 0.998629 0.001026
77.363281250000 6.695492744446 -120.162170410156 0.052343 0.998629 0.001026
-55.430656433105 13.654922485352 -6.552581787109 0.052343 0.998629 0.001026
-200.855911254883 21.276346206665 -176.449203491211 0.052343 0.998629 0.001026
96.263595581055 5.704969406128 -124.504112243652 0.052343 0.998629 0.001026
-51.814853668213 13.465433120728 -129.401031494141 0.052343 0.998629 0.001026
10.837013244629 10.181985855103 -102.103393554688 0.052343 0.998629 0.001026
-115.966415405273 16.827470779419 -76.433837890625 0.052343 0.998629 0.001026
-207.006225585938 21.598669052124 -164.898117065430 0.052343 0.998629 0.001026
-44.435821533203 13.078706741333 -6.223556518555 0.052343 0.998629 0.001026
-129.077972412109 17.514621734619 -100.115325927734 0.052343 0.998629 0.001026
-65.223243713379 14.168135643005 -102.970550537109 0.052343 0.998629 0.001026
-174.070434570313 19.872573852539 -55.995033264160 0.052343 0.998629 0.001026
-197.170455932617 21.083187103271 77.324234008789 0.052343 0.998629 0.001026
-32.013813018799 12.427705764771 -163.683486938477 0.052343 0.998629 0.001026
19.653701782227 9.719921112061 -59.746467590332 0.052343 0.998629 0.001026
-181.399383544922 20.256668090820 -49.893371582031 0.052343 0.998629 0.001026
5.829742431641 10.444404602051 -69.161979675293 0.052343 0.998629 0.001026
-192.381027221680 20.832191467285 -61.098945617676 0.052343 0.998629 0.001026
-126.206451416016 17.364122390747 60.892379760742 0.052343 0.998629 0.001026
-88.137710571289 15.369031906128 -113.324905395508 0.052343 0.998629 0.001026
-201.357604980469 21.302640914917 -190.074050903320 0.052343 0.998629 0.001026
-236.545883178711 23.146762847900 165.626831054688 0.052343 0.998629 0.001026
-41.849899291992 12.943193435669 -164.927764892578 0.052343 0.998629 0.001026
-208.825408935547 21.694000244141 26.073669433594 0.052343 0.998629 0.001026
-232.067382812500 22.912059783936 59.768936157227 0.052343 0.998629 0.001026
-150.242340087891 18.623798370361 -101.191543579102 0.052343 0.998629 0.001026
-63.455978393555 14.075511932373 -21.067649841309 0.052343 0.998629 0.001026
-228.033432006836 22.700645446777 101.445388793945 0.052343 0.998629 0.001026
-113.468093872070 16.696542739868 -130.637054443359 0.052343 0.998629 0.001026
-211.010025024414 21.808490753174 33.052566528320 0.052343 0.998629 0.001026
-129.020217895508 17.511592864990 -111.377059936523 0.052343 0.998629 0.001026
-215.634307861328 22.050834655762 116.580291748047 0.052343 0.998629 0.001026
-186.164672851563 20.506410598755 -171.304061889648 0.052343 0.998629 0.001026
95.342147827148 5.753260612488 -134.804611206055 0.052343 0.998629 0.001026
-160.171417236328 19.144151687622 25.606933593750 0.052343 0.998629 0.001026
-248.156494140625 23.755252838135 68.587005615234 0.052343 0.998629 0.001026
-149.470031738281 18.583322525024 -95.507141113281 0.052343 0.998629 0.001026
-206.882034301758 21.592155456543 -17.271713256836 0.052343 0.998629 0.001026
-186.327667236328 20.514938354492 118.204574584961 0.052343 0.998629 0.001026
-103.399597167969 16.168869018555 4.768173217773 0.052343 0.998629 0.001026
-214.566635131836 21.994888305664 -39.054779052734 0.052343 0.998629 0.001026
-202.227066040039 21.348197937012 -56.101165771484 0.052343 0.998629 0.001026
-156.260910034180 18.939216613770 -101.266342163086 0.052343 0.998629 0.001026
-139.712463378906 18.071943283081 43.458984375000 0.052343 0.998629 0.001026
-226.760940551758 22.633966445923 -93.250007629395 0.052343 0.998629 0.001026
-132.584411621094 17.698383331299 -58.438087463379 0.052343 0.998629 0.001026
-4.443603515625 10.982808113098 -88.966468811035 0.052343 0.998629 0.001026
-197.332885742188 21.091705322266 -24.314163208008 0.052343 0.998629 0.001026
-119.838676452637 17.030412673950 -187.252075195313 0.052343 0.998629 0.001026
-240.056396484375 23.330757141113 -159.518737792969 0.052343 0.998629 0.001026
-224.463745117188 22.513566970825 116.339691162109 0.052343 0.998629 0.001026
-113.710655212402 16.709247589111 10.565551757813 0.052343 0.998629 0.001026
-214.144927978516 21.972784042358 15.933105468750 0.052343 0.998629 0.001026
-39.145858764648 12.801477432251 -109.196228027344 0.052343 0.998629 0.001026
-14.303241729736 11.499532699585 -132.446289062500 0.052343 0.998629 0.001026
-139.387084960938 18.054893493652 18.096984863281 0.052343 0.998629 0.001026
-91.516769409180 15.546121597290 -126.974105834961 0.052343 0.998629 0.001026
-231.489501953125 22.881774902344 28.747711181641 0.052343 0.998629 0.001026
-115.624618530273 16.809556961060 -67.856781005859 0.052343 0.998629 0.001026
60.852043151855 7.560810565948 -133.183883666992 0.052343 0.998629 0.001026
-118.699714660645 16.970710754395 81.804855346680 0.052343 0.998629 0.001026
-2.265232086182 10.868646621704 -110.673454284668 0.052343 0.998629 0.001026
-200.776428222656 21.272172927856 -2.713592529297 0.052343 0.998629 0.001026
-68.161613464355 14.322128295898 -81.949249267578 0.052343 0.998629 0.001026
-244.104125976563 23.542886734009 -117.198036193848 0.052343 0.998629 0.001026
-202.205780029297 21.347085952759 -141.605346679688 0.052343 0.998629 0.001026
-187.333587646484 20.567665100098 -33.423385620117 0.052343 0.998629 0.001026
64.218139648438 7.384398460388 -90.643814086914 0.052343 0.998629 0.001026
29.576950073242 9.199865341187 -62.725357055664 0.052343 0.998629 0.001026
-123.207588195801 17.206970214844 -180.957946777344 0.052343 0.998629 0.001026
-174.108062744141 19.874542236328 -5.589050292969 0.052343 0.998629 0.001026
-239.705902099609 23.312374114990 119.069992065430 0.052343 0.998629 0.001026
-35.560432434082 12.613568305969 -8.990280151367 0.052343 0.998629 0.001026
-125.795883178711 17.342617034912 -164.832336425781 0.052343 0.998629 0.001026
-24.559329986572 12.037032127380 -162.393844604492 0.052343 0.998629 0.001026
-228.091735839844 22.703701019287 144.370819091797 0.052343 0.998629 0.001026
-248.125823974609 23.753646850586 58.974105834961 0.052343 0.998629 0.001026
-185.500442504883 20.471593856812 -83.602439880371 0.052343 0.998629 0.001026
-55.745517730713 13.671430587769 -140.459396362305 0.052343 0.998629 0.001026
12.093826293945 10.116120338440 -131.819732666016 0.052343 0.998629 0.001026
-174.211822509766 19.879978179932 27.857635498047 0.052343 0.998629 0.001026
-88.736282348633 15.400399208069 -37.632759094238 0.052343 0.998629 0.001026
46.947105407715 8.289536476135 -114.533828735352 0.052343 0.998629 0.001026
-61.363166809082 13.965830802917 20.855148315430 0.052343 0.998629 0.001026
-102.061698913574 16.098754882813 -71.999320983887 0.052343 0.998629 0.001026
-177.180236816406 20.035549163818 -16.012557983398 0.052343 0.998629 0.001026
-164.785140991211 19.385950088501 -27.314071655273 0.052343 0.998629 0.001026
-102.450942993164 16.119155883789 -95.455017089844 0.052343 0.998629 0.001026
-220.426208496094 22.301971435547 47.489822387695 0.052343 0.998629 0.001026
60.701251983643 7.568711280823 -94.475051879883 0.052343 0.998629 0.001026
-198.887695312500 21.173183441162 53.740051269531 0.052343 0.998629 0.001026
-38.101261138916 12.746732711792 -111.310012817383 0.052343 0.998629 0.001026
-212.164474487305 21.869003295898 -171.948303222656 0.052343 0.998629 0.001026
-31.695075988770 12.410994529724 -29.639831542969 0.052343 0.998629 0.001026
-199.080535888672 21.183288574219 113.109222412109 0.052343 0.998629 0.001026
-65.613136291504 14.188563346863 6.604141235352 0.052343 0.998629 0.001026
-155.933929443359 18.922071456909 89.702209472656 0.052343 0.998629 0.001026
-199.455871582031 21.202972412109 -130.687133789063 0.052343 0.998629 0.001026
-132.509460449219 17.694446563721 85.276397705078 0.052343 0.998629 0.001026
-55.856689453125 13.677255630493 -113.392257690430 0.052343 0.998629 0.001026
-201.601348876953 21.315401077271 40.488769531250 0.052343 0.998629 0.001026
-205.490081787109 21.519197463989 138.801666259766 0.052343 0.998629 0.001026
-16.465744018555 11.612860679626 -56.444564819336 0.052343 0.998629 0.001026
-230.156219482422 22.811897277832 88.737075805664 0.052343 0.998629 0.001026
-204.872177124023 21.486822128296 1.692932128906 0.052343 0.998629 0.001026
-207.145172119141 21.605936050415 146.198654174805 0.052343 0.998629 0.001026
-154.064773559570 18.824113845825 85.104370117188 0.052343 0.998629 0.001026
-167.677062988281 19.537513732910 -122.863388061523 0.052343 0.998629 0.001026
58.520278930664 7.683012485504 -121.639831542969 0.052343 0.998629 0.001026
-117.479034423828 16.906740188599 5.462921142578 0.052343 0.998629 0.001026
-217.707824707031 22.159515380859 -116.293365478516 0.052343 0.998629 0.001026
-55.742546081543 13.671275138855 -149.731399536133 0.052343 0.998629 0.001026
-178.219818115234 20.090036392212 -162.234375000000 0.052343 0.998629 0.001026
-45.320007324219 13.125045776367 -4.032333374023 0.052343 0.998629 0.001026
-146.137756347656 18.408687591553 -132.962448120117 0.052343 0.998629 0.001026
-126.783256530762 17.394351959229 34.512023925781 0.052343 0.998629 0.001026
-128.445266723633 17.481460571289 -87.734375000000 0.052343 0.998629 0.001026
-169.457519531250 19.630821228027 -110.345184326172 0.052343 0.998629 0.001026
-24.994211196899 12.059822082520 -134.613464355469 0.052343 0.998629 0.001026
-66.750366210938 14.248165130615 -26.066268920898 0.052343 0.998629 0.001026
-49.692104339600 13.354186058044 -164.035018920898 0.052343 0.998629 0.001026
-93.824340820313 15.667059898376 -182.520263671875 0.052343 0.998629 0.001026
21.003211975098 9.649194717407 -47.460563659668 0.052343 0.998629 0.001026
-132.288375854492 17.682874679565 -184.786621093750 0.052343 0.998629 0.001026
-243.742187500000 23.523910522461 41.696563720703 0.052343 0.998629 0.001026
2.484107971191 10.619744300842 -137.367782592773 0.052343 0.998629 0.001026
-149.530532836914 18.586498260498 -181.800796508789 0.052343 0.998629 0.001026
-50.485176086426 13.395741462708 -14.794898986816 0.052343 0.998629 0.001026
-170.638275146484 19.692693710327 105.539932250977 0.052343 0.998629 0.001026
-18.510272979736 11.720014572144 -148.524368286133 0.052343 0.998629 0.001026
-166.957916259766 19.499822616577 -67.725990295410 0.052343 0.998629 0.001026
-47.073860168457 13.216962814331 -22.233253479004 0.052343 0.998629 0.001026
-233.033325195313 22.962677001953 164.278900146484 0.052343 0.998629 0.001026
-216.258880615234 22.083568572998 64.048736572266 0.052343 0.998629 0.001026
-177.123077392578 20.032554626465 -40.760330200195 0.052343 0.998629 0.001026
-80.926971435547 14.991127014160 16.793365478516 0.052343 0.998629 0.001026
-253.713256835938 24.046464920044 191.787719726563 0.052343 0.998629 0.001026
-219.415405273438 22.249008178711 -169.789276123047 0.052343 0.998629 0.001026
-48.576190948486 13.295701026917 -124.523300170898 0.052343 0.998629 0.001026
-227.012237548828 22.647132873535 -17.586990356445 0.052343 0.998629 0.001026
-245.428375244141 23.612276077271 82.720397949219 0.052343 0.998629 0.001026
-230.695434570313 22.840156555176 67.802841186523 0.052343 0.998629 0.001026
-151.938980102539 18.712703704834 112.838302612305 0.052343 0.998629 0.001026
-55.959518432617 13.682640075684 -27.376167297363 0.052343 0.998629 0.001026
-29.310810089111 12.286045074463 -108.928588867188 0.052343 0.998629 0.001026
-187.789764404297 20.591577529907 -141.393890380859 0.052343 0.998629 0.001026
-160.983154296875 19.186695098877 9.660461425781 0.052343 0.998629 0.001026
-29.540979385376 12.298109054565 -145.816375732422 0.052343 0.998629 0.001026
-117.024276733398 16.882907867432 -6.892257690430 0.052343 0.998629 0.001026
-148.940155029297 18.555551528931 -88.983940124512 0.052343 0.998629 0.001026
-199.068267822266 21.182653427124 -48.779594421387 0.052343 0.998629 0.001026
-152.737365722656 18.754558563232 -178.675552368164 0.052343 0.998629 0.001026
-131.202423095703 17.625959396362 -140.948577880859 0.052343 0.998629 0.001026
-177.533477783203 20.054067611694 -156.027191162109 0.052343 0.998629 0.001026
-94.981498718262 15.727694511414 -12.377838134766 0.052343 0.998629 0.001026
-189.213256835938 20.666181564331 -185.206542968750 0.052343 0.998629 0.001026
-221.756042480469 22.371662139893 110.221740722656 0.052343 0.998629 0.001026
-214.578628540039 21.995513916016 11.881774902344 0.052343 0.998629 0.001026
-122.810310363770 17.186141967773 -25.752349853516 0.052343 0.998629 0.001026
-120.738700866699 17.077575683594 -75.538322448730 0.052343 0.998629 0.001026
-143.566802978516 18.273944854736 -30.309936523438 0.052343 0.998629 0.001026
-232.588455200195 22.939369201660 66.510314941406 0.052343 0.998629 0.001026
-235.086364746094 23.070274353027 122.557403564453 0.052343 0.998629 0.001026
-123.786872863770 17.237329483032 -167.084594726563 0.052343 0.998629 0.001026
-209.482147216797 21.728424072266 -102.224067687988 0.052343 0.998629 0.001026
-172.640899658203 19.797658920288 -170.453872680664 0.052343 0.998629 0.001026
-113.156364440918 16.680206298828 -154.545989990234 0.052343 0.998629 0.001026
48.023517608643 8.233122825623 -91.924041748047 0.052343 0.998629 0.001026
-119.965934753418 17.037075042725 -21.710693359375 0.052343 0.998629 0.001026
-237.699218750000 23.207218170166 -90.955574035645 0.052343 0.998629 0.001026
-248.024169921875 23.748321533203 17.133026123047 0.052343 0.998629 0.001026
-226.209106445313 22.605037689209 100.298660278320 0.052343 0.998629 0.001026
-170.305938720703 19.675289154053 -180.220703125000 0.052343 0.998629 0.001026
-222.456634521484 22.408386230469 -8.678680419922 0.052343 0.998629 0.001026
-23.266132354736 11.969257354736 -127.994628906250 0.052343 0.998629 0.001026
-32.557464599609 12.456190109253 -12.638275146484 0.052343 0.998629 0.001026
-204.111907958984 21.446973800659 79.021026611328 0.052343 0.998629 0.001026
-215.287658691406 22.032676696777 -71.776130676270 0.052343 0.998629 0.001026
-159.950561523438 19.132577896118 27.219436645508 0.052343 0.998629 0.001026
-171.515914916992 19.738697052002 -33.530960083008 0.052343 0.998629 0.001026
-116.611038208008 16.861257553101 -134.513320922852 0.052343 0.998629 0.001026
-46.081176757813 13.164937973022 -2.751144409180 0.052343 0.998629 0.001026
-98.107315063477 15.891516685486 -117.229637145996 0.052343 0.998629 0.001026
-205.726562500000 21.531600952148 -98.437988281250 0.052343 0.998629 0.001026
-214.926223754883 22.013729095459 33.598297119141 0.052343 0.998629 0.001026
-176.628479003906 20.006637573242 -116.488243103027 0.052343 0.998629 0.001026
-50.191894531250 13.380370140076 0.086059570313 0.052343 0.998629 0.001026
-51.084571838379 13.427157402039 -60.428398132324 0.052343 0.998629 0.001026
-204.143249511719 21.448617935181 40.939758300781 0.052343 0.998629 0.001026
-71.492874145508 14.496709823608 -24.496841430664 0.052343 0.998629 0.001026
-219.177734375000 22.236541748047 36.294662475586 0.052343 0.998629 0.001026
-151.515075683594 18.690494537354 -9.910568237305 0.052343 0.998629 0.001026
-247.682617187500 23.730422973633 -14.231155395508 0.052343 0.998629 0.001026
