//X Y Z Nx Ny Nz
616
-36.627151489258 43.757869720459 8.154021263123 -0.101730 0.001071 0.994811
103.069633483887 64.865837097168 22.554410934448 -0.101730 0.001071 0.994811
-146.927413940430 38.185039520264 -3.216026306152 -0.101730 0.001071 0.994811
-45.023544311523 53.452365875244 7.288549423218 -0.101730 0.001071 0.994811
-126.374465942383 45.579505920410 -1.097341537476 -0.101730 0.001071 0.994811
-30.385437011719 43.260623931885 8.797429084778 -0.101730 0.001071 0.994811
28.719482421875 59.130035400391 14.890186309814 -0.101730 0.001071 0.994811
-58.056091308594 39.476551055908 5.945053100586 -0.101730 0.001071 0.994811
29.831085205078 48.888885498047 15.004721641541 -0.101730 0.001071 0.994811
10.322723388672 26.045921325684 12.993638992310 -0.101730 0.001071 0.994811
104.359626770020 68.168876647949 22.687402725220 -0.101730 0.001071 0.994811
0.229385375977 52.703414916992 11.953325271606 -0.101730 0.001071 0.994811
65.905128479004 65.447463989258 18.723405838013 -0.101730 0.001071 0.994811
-20.895935058594 44.247768402100 9.775633811951 -0.101730 0.001071 0.994811
-36.141586303711 35.290847778320 8.204031944275 -0.101730 0.001071 0.994811
-199.156036376953 36.836868286133 -8.599885940552 -0.101730 0.001071 0.994811
18.144523620605 25.703508377075 13.799926757813 -0.101730 0.001071 0.994811
57.362213134766 28.197473526001 17.842594146729 -0.101730 0.001071 0.994811
-78.598236083984 43.742019653320 3.827539443970 -0.101730 0.001071 0.994811
58.386314392090 43.442630767822 17.948236465454 -0.101730 0.001071 0.994811
90.835487365723 32.971569061279 21.293123245239 -0.101730 0.001071 0.994811
43.512756347656 36.210403442383 16.414999008179 -0.101730 0.001071 0.994811
84.647583007813 43.823768615723 20.655315399170 -0.101730 0.001071 0.994811
94.501014709473 62.687393188477 21.671125411987 -0.101730 0.001071 0.994811
66.285598754883 24.537330627441 18.762418746948 -0.101730 0.001071 0.994811
-34.387466430664 30.391277313232 8.384826660156 -0.101730 0.001071 0.994811
-23.266738891602 33.749774932861 9.531193733215 -0.101730 0.001071 0.994811
-192.945190429688 38.499362945557 -7.959650039673 -0.101730 0.001071 0.994811
77.557876586914 63.208042144775 19.924587249756 -0.101730 0.001071 0.994811
-171.332824707031 42.276550292969 -5.731775283813 -0.101730 0.001071 0.994811
54.935077667236 23.235837936401 17.592372894287 -0.101730 0.001071 0.994811
-121.385238647461 33.115314483643 -0.583103179932 -0.101730 0.001071 0.994811
-129.441329956055 36.977439880371 -1.413522720337 -0.101730 0.001071 0.994811
-106.327331542969 33.770660400391 0.969108581543 -0.101730 0.001071 0.994811
83.919113159180 56.874824523926 20.580287933350 -0.101730 0.001071 0.994811
22.318428039551 46.455394744873 14.230287551880 -0.101730 0.001071 0.994811
50.333679199219 37.761039733887 17.118124008179 -0.101730 0.001071 0.994811
-155.962554931641 42.126617431641 -4.147371292114 -0.101730 0.001071 0.994811
-9.777717590332 44.089893341064 10.921726226807 -0.101730 0.001071 0.994811
25.529693603516 54.731529235840 14.561352729797 -0.101730 0.001071 0.994811
31.854972839355 59.738323211670 15.213403701782 -0.101730 0.001071 0.994811
34.990890502930 36.463108062744 15.536544799805 -0.101730 0.001071 0.994811
-142.449874877930 41.603416442871 -2.754453659058 -0.101730 0.001071 0.994811
67.455680847168 59.458446502686 18.883211135864 -0.101730 0.001071 0.994811
80.168785095215 61.271919250488 20.193716049194 -0.101730 0.001071 0.994811
-15.533691406250 35.348335266113 10.328344345093 -0.101730 0.001071 0.994811
94.223388671875 40.613437652588 21.642395019531 -0.101730 0.001071 0.994811
-10.705879211426 49.326942443848 10.826075553894 -0.101730 0.001071 0.994811
2.956092834473 33.069026947021 12.234303474426 -0.101730 0.001071 0.994811
75.297760009766 28.280622482300 19.691432952881 -0.101730 0.001071 0.994811
84.201484680176 47.652999877930 20.609348297119 -0.101730 0.001071 0.994811
87.472412109375 30.700834274292 20.946439743042 -0.101730 0.001071 0.994811
47.686798095703 61.546760559082 16.845396041870 -0.101730 0.001071 0.994811
-50.323394775391 44.661098480225 6.742181777954 -0.101730 0.001071 0.994811
-6.363052368164 29.632129669189 11.273646354675 -0.101730 0.001071 0.994811
-41.348236083984 37.657600402832 7.667328834534 -0.101730 0.001071 0.994811
95.805480957031 62.713928222656 21.805591583252 -0.101730 0.001071 0.994811
89.501892089844 36.149414062500 21.155670166016 -0.101730 0.001071 0.994811
-67.862060546875 48.298133850098 4.934272766113 -0.101730 0.001071 0.994811
-3.045585632324 57.245822906494 11.615756988525 -0.101730 0.001071 0.994811
-41.630081176758 40.317001342773 7.638288497925 -0.101730 0.001071 0.994811
-94.063888549805 40.891300201416 2.233287811279 -0.101730 0.001071 0.994811
72.724563598633 62.652385711670 19.426357269287 -0.101730 0.001071 0.994811
-36.249618530273 52.624839782715 8.192982673645 -0.101730 0.001071 0.994811
-113.324707031250 41.502048492432 0.247838973999 -0.101730 0.001071 0.994811
-11.602554321289 33.779243469238 10.733566284180 -0.101730 0.001071 0.994811
24.166076660156 37.400196075439 14.420701026917 -0.101730 0.001071 0.994811
-83.649856567383 30.846023559570 3.306741714478 -0.101730 0.001071 0.994811
-63.297805786133 43.920669555664 5.404747009277 -0.101730 0.001071 0.994811
20.562965393066 59.397285461426 14.049394607544 -0.101730 0.001071 0.994811
83.128501892090 25.188211441040 20.498628616333 -0.101730 0.001071 0.994811
27.551834106445 55.706630706787 14.769805908203 -0.101730 0.001071 0.994811
31.948097229004 57.027271270752 15.222990036011 -0.101730 0.001071 0.994811
-118.892639160156 38.231552124023 -0.326131820679 -0.101730 0.001071 0.994811
89.563079833984 23.820697784424 21.161914825439 -0.101730 0.001071 0.994811
73.670967102051 45.498157501221 19.523826599121 -0.101730 0.001071 0.994811
10.211524963379 51.600490570068 12.982304573059 -0.101730 0.001071 0.994811
27.085708618164 50.101711273193 14.721728324890 -0.101730 0.001071 0.994811
-77.991653442383 52.151351928711 3.890110015869 -0.101730 0.001071 0.994811
18.339012145996 50.257373809814 13.820098876953 -0.101730 0.001071 0.994811
-37.223449707031 36.799438476563 8.092516899109 -0.101730 0.001071 0.994811
86.460830688477 54.870193481445 20.842283248901 -0.101730 0.001071 0.994811
-130.097793579102 45.726028442383 -1.481149673462 -0.101730 0.001071 0.994811
-46.320114135742 37.768901824951 7.154816627502 -0.101730 0.001071 0.994811
-57.375747680664 46.403770446777 6.015218734741 -0.101730 0.001071 0.994811
-60.761947631836 46.440841674805 5.666160583496 -0.101730 0.001071 0.994811
-26.033859252930 47.151893615723 9.246019363403 -0.101730 0.001071 0.994811
67.093315124512 30.085695266724 18.845708847046 -0.101730 0.001071 0.994811
91.658576965332 39.546367645264 21.378002166748 -0.101730 0.001071 0.994811
86.105773925781 52.065811157227 20.805669784546 -0.101730 0.001071 0.994811
-52.469375610352 47.882675170898 6.520984649658 -0.101730 0.001071 0.994811
-57.979705810547 37.958644866943 5.952919006348 -0.101730 0.001071 0.994811
29.906318664551 41.535663604736 15.012439727783 -0.101730 0.001071 0.994811
-56.864318847656 33.171977996826 6.067871093750 -0.101730 0.001071 0.994811
-160.938262939453 38.097446441650 -4.660297393799 -0.101730 0.001071 0.994811
16.673126220703 25.253097534180 13.648248672485 -0.101730 0.001071 0.994811
52.069522857666 34.356517791748 17.297040939331 -0.101730 0.001071 0.994811
58.791610717773 42.576759338379 17.990011215210 -0.101730 0.001071 0.994811
28.096359252930 43.896266937256 14.825877189636 -0.101730 0.001071 0.994811
98.745414733887 41.487434387207 22.108541488647 -0.101730 0.001071 0.994811
-168.766357421875 40.884643554688 -5.467222213745 -0.101730 0.001071 0.994811
-33.993820190430 32.465248107910 8.425414085388 -0.101730 0.001071 0.994811
91.515769958496 60.114742279053 21.363386154175 -0.101730 0.001071 0.994811
35.152084350586 55.552688598633 15.553257942200 -0.101730 0.001071 0.994811
-14.947708129883 45.206085205078 10.388798713684 -0.101730 0.001071 0.994811
67.364723205566 57.857154846191 18.873825073242 -0.101730 0.001071 0.994811
8.563423156738 44.129089355469 12.812376022339 -0.101730 0.001071 0.994811
-29.912185668945 40.016429901123 8.846197128296 -0.101730 0.001071 0.994811
-130.972808837891 38.540405273438 -1.571384429932 -0.101730 0.001071 0.994811
82.729400634766 65.657806396484 20.457693099976 -0.101730 0.001071 0.994811
-51.523361206055 41.106975555420 6.618471145630 -0.101730 0.001071 0.994811
-193.944335937500 37.576957702637 -8.062646865845 -0.101730 0.001071 0.994811
104.032341003418 47.478729248047 22.653560638428 -0.101730 0.001071 0.994811
-46.863906860352 53.348167419434 7.098838806152 -0.101730 0.001071 0.994811
57.187557220459 28.749032974243 17.824592590332 -0.101730 0.001071 0.994811
-39.924942016602 51.752014160156 7.814115524292 -0.101730 0.001071 0.994811
26.660316467285 35.440086364746 14.677804946899 -0.101730 0.001071 0.994811
6.582244873047 49.453662872314 12.608178138733 -0.101730 0.001071 0.994811
-62.952972412109 41.490417480469 5.440279006958 -0.101730 0.001071 0.994811
-15.513359069824 27.536235809326 10.330399513245 -0.101730 0.001071 0.994811
-159.627410888672 35.959533691406 -4.525184631348 -0.101730 0.001071 0.994811
-12.750312805176 38.878150939941 10.615278244019 -0.101730 0.001071 0.994811
100.921707153320 32.080123901367 22.332830429077 -0.101730 0.001071 0.994811
-23.455261230469 53.638427734375 9.511860847473 -0.101730 0.001071 0.994811
25.971992492676 57.653518676758 14.606961250305 -0.101730 0.001071 0.994811
-174.353851318359 40.494842529297 -6.043197631836 -0.101730 0.001071 0.994811
-47.959960937500 31.075111389160 6.985742568970 -0.101730 0.001071 0.994811
-92.192703247070 31.737590789795 2.426128387451 -0.101730 0.001071 0.994811
-89.693023681641 40.578575134277 2.683845520020 -0.101730 0.001071 0.994811
101.718750000000 55.161659240723 22.415107727051 -0.101730 0.001071 0.994811
46.538967132568 43.523288726807 16.726985931396 -0.101730 0.001071 0.994811
-16.378700256348 39.621906280518 10.241259574890 -0.101730 0.001071 0.994811
8.561874389648 27.251197814941 12.812132835388 -0.101730 0.001071 0.994811
38.140029907227 31.765407562256 15.861141204834 -0.101730 0.001071 0.994811
23.838424682617 41.322059631348 14.386946678162 -0.101730 0.001071 0.994811
-30.164535522461 29.220155715942 8.820128440857 -0.101730 0.001071 0.994811
103.954086303711 36.331737518311 22.645437240601 -0.101730 0.001071 0.994811
-165.263366699219 40.316040039063 -5.106128692627 -0.101730 0.001071 0.994811
-23.468917846680 45.513961791992 9.510412216187 -0.101730 0.001071 0.994811
-24.210418701172 53.011966705322 9.434013366699 -0.101730 0.001071 0.994811
3.193473815918 46.522956848145 12.258841514587 -0.101730 0.001071 0.994811
-47.309570312500 51.983741760254 7.052892684937 -0.101730 0.001071 0.994811
106.200088500977 27.558685302734 22.876916885376 -0.101730 0.001071 0.994811
86.840667724609 29.718570709229 20.881311416626 -0.101730 0.001071 0.994811
75.296264648438 27.803527832031 19.691276550293 -0.101730 0.001071 0.994811
-39.238922119141 40.808921813965 7.884778022766 -0.101730 0.001071 0.994811
-38.583236694336 38.783584594727 7.952356338501 -0.101730 0.001071 0.994811
-21.878051757813 53.497344970703 9.674440383911 -0.101730 0.001071 0.994811
99.265327453613 57.308998107910 22.162214279175 -0.101730 0.001071 0.994811
-9.223045349121 58.524662017822 10.978977203369 -0.101730 0.001071 0.994811
105.886001586914 60.320777893066 22.844703674316 -0.101730 0.001071 0.994811
-34.092147827148 50.531024932861 8.415369987488 -0.101730 0.001071 0.994811
88.886619567871 29.558036804199 21.092212677002 -0.101730 0.001071 0.994811
84.796997070313 64.893356323242 20.670822143555 -0.101730 0.001071 0.994811
53.134895324707 39.913795471191 17.406890869141 -0.101730 0.001071 0.994811
-58.347473144531 38.996952056885 5.915012359619 -0.101730 0.001071 0.994811
46.398460388184 28.275505065918 16.712423324585 -0.101730 0.001071 0.994811
-86.877609252930 37.484230041504 2.974050521851 -0.101730 0.001071 0.994811
35.668914794922 40.165691375732 15.606455802917 -0.101730 0.001071 0.994811
74.989807128906 58.942989349365 19.659843444824 -0.101730 0.001071 0.994811
105.596664428711 35.992218017578 22.814756393433 -0.101730 0.001071 0.994811
24.926322937012 55.058120727539 14.499158859253 -0.101730 0.001071 0.994811
53.627460479736 25.755239486694 17.457593917847 -0.101730 0.001071 0.994811
-25.236404418945 56.685424804688 9.328270912170 -0.101730 0.001071 0.994811
-11.288200378418 47.452159881592 10.766038894653 -0.101730 0.001071 0.994811
7.734359741211 34.746963500977 12.726866722107 -0.101730 0.001071 0.994811
85.608528137207 33.083290100098 20.754318237305 -0.101730 0.001071 0.994811
95.431465148926 59.273124694824 21.767021179199 -0.101730 0.001071 0.994811
101.308776855469 66.360183715820 22.372903823853 -0.101730 0.001071 0.994811
95.167182922363 49.759552001953 21.739730834961 -0.101730 0.001071 0.994811
-126.715866088867 45.640533447266 -1.132532119751 -0.101730 0.001071 0.994811
65.233146667480 34.303882598877 18.653980255127 -0.101730 0.001071 0.994811
-96.580596923828 37.096630096436 1.973840713501 -0.101730 0.001071 0.994811
-65.128402709961 34.812553405762 5.215997695923 -0.101730 0.001071 0.994811
72.380950927734 48.137264251709 19.390861511230 -0.101730 0.001071 0.994811
78.591537475586 54.293560028076 20.031093597412 -0.101730 0.001071 0.994811
92.800308227539 36.958232879639 21.495681762695 -0.101730 0.001071 0.994811
70.779365539551 50.534629821777 19.225776672363 -0.101730 0.001071 0.994811
87.302162170410 61.640857696533 20.929044723511 -0.101730 0.001071 0.994811
92.951850891113 22.901287078857 21.511234283447 -0.101730 0.001071 0.994811
25.977104187012 38.912696838379 14.607395172119 -0.101730 0.001071 0.994811
-55.564300537109 33.894393920898 6.201883316040 -0.101730 0.001071 0.994811
68.217323303223 49.709682464600 18.961673736572 -0.101730 0.001071 0.994811
-54.405838012695 37.780029296875 6.321321487427 -0.101730 0.001071 0.994811
-191.712432861328 40.937026977539 -7.832559585571 -0.101730 0.001071 0.994811
5.885818481445 40.693416595459 12.536345481873 -0.101730 0.001071 0.994811
65.427078247070 23.839086532593 18.673917770386 -0.101730 0.001071 0.994811
57.066364288330 56.950111389160 17.812242507935 -0.101730 0.001071 0.994811
33.433555603027 55.599338531494 15.376108169556 -0.101730 0.001071 0.994811
34.290420532227 41.082424163818 15.464363098145 -0.101730 0.001071 0.994811
13.644737243652 43.228302001953 13.336165428162 -0.101730 0.001071 0.994811
-7.232223510742 37.453502655029 11.184088706970 -0.101730 0.001071 0.994811
-196.040985107422 38.195499420166 -8.278770446777 -0.101730 0.001071 0.994811
60.365959167480 46.617721557617 18.152320861816 -0.101730 0.001071 0.994811
23.643165588379 56.779376983643 14.366895675659 -0.101730 0.001071 0.994811
63.455757141113 48.229225158691 18.470830917358 -0.101730 0.001071 0.994811
44.054668426514 55.854526519775 16.470958709717 -0.101730 0.001071 0.994811
-96.550598144531 46.157955169678 1.976978302002 -0.101730 0.001071 0.994811
85.725250244141 50.646713256836 20.766437530518 -0.101730 0.001071 0.994811
57.398960113525 56.495311737061 17.846523284912 -0.101730 0.001071 0.994811
-12.943351745605 36.523281097412 10.595367431641 -0.101730 0.001071 0.994811
-48.104003906250 43.865184783936 6.970958709717 -0.101730 0.001071 0.994811
-5.630638122559 51.181045532227 11.349254608154 -0.101730 0.001071 0.994811
-71.620483398438 45.515254974365 4.546833038330 -0.101730 0.001071 0.994811
57.959423065186 48.111782073975 17.904254913330 -0.101730 0.001071 0.994811
-85.771896362305 37.067512512207 3.088027954102 -0.101730 0.001071 0.994811
14.635826110840 54.864524841309 13.438387870789 -0.101730 0.001071 0.994811
-73.919158935547 47.396911621094 4.309888839722 -0.101730 0.001071 0.994811
-56.901565551758 49.027496337891 6.064111709595 -0.101730 0.001071 0.994811
97.574188232422 49.298305511475 21.987848281860 -0.101730 0.001071 0.994811
-108.495971679688 65.155525207520 0.745697855949 -0.101730 0.001071 0.994811
-25.927795410156 72.213157653809 9.257061004639 -0.101730 0.001071 0.994811
-44.809661865234 55.767711639404 7.310607910156 -0.101730 0.001071 0.994811
-44.845504760742 59.842533111572 7.306928634644 -0.101730 0.001071 0.994811
-18.973587036133 60.508522033691 9.973875999451 -0.101730 0.001071 0.994811
9.050292968750 73.397712707520 12.862696647644 -0.101730 0.001071 0.994811
24.440643310547 64.495315551758 14.449138641357 -0.101730 0.001071 0.994811
-91.248840332031 55.403045654297 2.523539304733 -0.101730 0.001071 0.994811
-119.163635253906 59.788894653320 -0.353972762823 -0.101730 0.001071 0.994811
-12.689453125000 76.130027770996 10.621717453003 -0.101730 0.001071 0.994811
-206.239791870117 74.661537170410 -9.329948425293 -0.101730 0.001071 0.994811
-157.241638183594 74.165855407715 -4.279096603394 -0.101730 0.001071 0.994811
-150.234710693359 81.344818115234 -3.556776523590 -0.101730 0.001071 0.994811
-217.892761230469 48.457649230957 -10.531265258789 -0.101730 0.001071 0.994811
-80.796905517578 69.723571777344 3.601004123688 -0.101730 0.001071 0.994811
-23.281616210938 69.945091247559 9.529827117920 -0.101730 0.001071 0.994811
-175.211120605469 55.898853302002 -6.131505012512 -0.101730 0.001071 0.994811
-120.444801330566 50.811164855957 -0.486072897911 -0.101730 0.001071 0.994811
-209.233245849609 77.120201110840 -9.638511657715 -0.101730 0.001071 0.994811
-56.470581054688 58.750091552734 6.108581542969 -0.101730 0.001071 0.994811
30.892517089844 73.074684143066 15.114246368408 -0.101730 0.001071 0.994811
-230.314468383789 43.158546447754 -11.811745643616 -0.101730 0.001071 0.994811
-105.739471435547 57.843162536621 1.029817461967 -0.101730 0.001071 0.994811
-54.203308105469 55.620086669922 6.342288017273 -0.101730 0.001071 0.994811
61.500823974609 71.320152282715 18.269418716431 -0.101730 0.001071 0.994811
-134.827758789063 52.242111206055 -1.968698740005 -0.101730 0.001071 0.994811
-65.076583862305 64.254440307617 5.221474647522 -0.101730 0.001071 0.994811
-136.170074462891 60.396923065186 -2.107038021088 -0.101730 0.001071 0.994811
-138.517868041992 47.019054412842 -2.349104404449 -0.101730 0.001071 0.994811
-69.271133422852 59.429550170898 4.789071559906 -0.101730 0.001071 0.994811
-115.901130676270 57.432605743408 -0.017674336210 -0.101730 0.001071 0.994811
48.335235595703 72.905601501465 16.912286758423 -0.101730 0.001071 0.994811
-168.709533691406 62.414138793945 -5.461280345917 -0.101730 0.001071 0.994811
62.103881835938 70.189224243164 18.331583023071 -0.101730 0.001071 0.994811
-117.488708496094 52.735130310059 -0.181343898177 -0.101730 0.001071 0.994811
-222.955627441406 67.823921203613 -11.053085327148 -0.101730 0.001071 0.994811
-107.109626770020 56.149013519287 0.888571500778 -0.101730 0.001071 0.994811
-95.570785522461 53.750419616699 2.078015327454 -0.101730 0.001071 0.994811
-139.015380859375 58.494697570801 -2.400346755981 -0.101730 0.001071 0.994811
-138.868728637695 72.678131103516 -2.385175704956 -0.101730 0.001071 0.994811
-180.787460327148 54.162673950195 -6.706334590912 -0.101730 0.001071 0.994811
-43.085098266602 63.355403900146 7.488409996033 -0.101730 0.001071 0.994811
63.419250488281 70.405830383301 18.467176437378 -0.101730 0.001071 0.994811
-93.542907714844 79.703750610352 2.287152051926 -0.101730 0.001071 0.994811
-118.525299072266 54.595355987549 -0.288190960884 -0.101730 0.001071 0.994811
-151.991683959961 51.104080200195 -3.738003969193 -0.101730 0.001071 0.994811
-194.332626342773 58.142013549805 -8.102590560913 -0.101730 0.001071 0.994811
34.482452392578 68.805908203125 15.484291076660 -0.101730 0.001071 0.994811
-218.642395019531 40.834506988525 -10.608568191528 -0.101730 0.001071 0.994811
-55.086044311523 56.548065185547 6.251296043396 -0.101730 0.001071 0.994811
-202.024444580078 43.903053283691 -8.895535469055 -0.101730 0.001071 0.994811
-177.644958496094 46.027965545654 -6.382427692413 -0.101730 0.001071 0.994811
-10.771118164063 65.784301757813 10.819426536560 -0.101730 0.001071 0.994811
-156.071960449219 73.501113891602 -4.158525466919 -0.101730 0.001071 0.994811
-129.407363891602 70.810218811035 -1.409880518913 -0.101730 0.001071 0.994811
-114.234588623047 70.065391540527 0.154164746404 -0.101730 0.001071 0.994811
-79.998626708984 72.081802368164 3.683301448822 -0.101730 0.001071 0.994811
-114.706069946289 56.521095275879 0.105511724949 -0.101730 0.001071 0.994811
-228.432022094727 74.545944213867 -11.617579460144 -0.101730 0.001071 0.994811
16.417007446289 70.763938903809 13.622066497803 -0.101730 0.001071 0.994811
-137.098693847656 71.569641113281 -2.202720642090 -0.101730 0.001071 0.994811
-53.547897338867 74.425476074219 6.409918785095 -0.101730 0.001071 0.994811
-118.093421936035 75.664169311523 -0.243592232466 -0.101730 0.001071 0.994811
-205.786148071289 83.135177612305 -9.283152580261 -0.101730 0.001071 0.994811
-203.621215820313 73.487472534180 -9.060022354126 -0.101730 0.001071 0.994811
-177.545303344727 66.870391845703 -6.372076988220 -0.101730 0.001071 0.994811
-156.762420654297 79.271148681641 -4.229677200317 -0.101730 0.001071 0.994811
-26.347915649414 62.049011230469 9.213716506958 -0.101730 0.001071 0.994811
-218.851852416992 42.430187225342 -10.630152702332 -0.101730 0.001071 0.994811
-45.205078125000 57.818771362305 7.269855499268 -0.101730 0.001071 0.994811
-126.724159240723 69.669265747070 -1.133293509483 -0.101730 0.001071 0.994811
-148.627593994141 60.252799987793 -3.391191005707 -0.101730 0.001071 0.994811
-187.704757690430 81.766174316406 -7.419283390045 -0.101730 0.001071 0.994811
-43.571899414063 68.943809509277 7.438249111176 -0.101730 0.001071 0.994811
-225.424026489258 54.446197509766 -11.307584762573 -0.101730 0.001071 0.994811
-93.102584838867 72.637039184570 2.332515478134 -0.101730 0.001071 0.994811
-206.433258056641 51.596092224121 -9.349978446960 -0.101730 0.001071 0.994811
82.297607421875 68.183670043945 20.413194656372 -0.101730 0.001071 0.994811
9.257629394531 73.630111694336 12.884069442749 -0.101730 0.001071 0.994811
-78.881301879883 61.023086547852 3.798437595367 -0.101730 0.001071 0.994811
-49.485321044922 70.784484863281 6.828686714172 -0.101730 0.001071 0.994811
-93.726257324219 72.198104858398 2.268224000931 -0.101730 0.001071 0.994811
-51.305923461914 67.555816650391 6.641001701355 -0.101730 0.001071 0.994811
-192.906005859375 48.370780944824 -7.955567836761 -0.101730 0.001071 0.994811
48.962829589844 71.812377929688 16.976976394653 -0.101730 0.001071 0.994811
-198.979537963867 57.773757934570 -8.581606864929 -0.101730 0.001071 0.994811
-204.574951171875 46.348442077637 -9.158438682556 -0.101730 0.001071 0.994811
-143.536712646484 71.818847656250 -2.866364955902 -0.101730 0.001071 0.994811
-200.367370605469 84.147796630859 -8.724567413330 -0.101730 0.001071 0.994811
-199.579849243164 64.183197021484 -8.643464088440 -0.101730 0.001071 0.994811
60.070861816406 72.496520996094 18.122024536133 -0.101730 0.001071 0.994811
-169.841003417969 61.067516326904 -5.577920436859 -0.101730 0.001071 0.994811
-125.084663391113 69.716072082520 -0.964289546013 -0.101730 0.001071 0.994811
-108.619461059570 55.705139160156 0.732932627201 -0.101730 0.001071 0.994811
-229.619079589844 41.198303222656 -11.740071296692 -0.101730 0.001071 0.994811
-75.005950927734 57.946086883545 4.197906494141 -0.101730 0.001071 0.994811
-159.582733154297 72.098526000977 -4.520428657532 -0.101730 0.001071 0.994811
-60.188415527344 60.151809692383 5.725344657898 -0.101730 0.001071 0.994811
-59.798477172852 66.561416625977 5.765563964844 -0.101730 0.001071 0.994811
-196.899963378906 57.690170288086 -8.367238998413 -0.101730 0.001071 0.994811
-178.885253906250 61.651348114014 -6.510222434998 -0.101730 0.001071 0.994811
-150.789199829102 74.837402343750 -3.613959312439 -0.101730 0.001071 0.994811
-50.623138427734 71.413726806641 6.711399078369 -0.101730 0.001071 0.994811
-190.911727905273 76.419670104980 -7.749885082245 -0.101730 0.001071 0.994811
-154.846008300781 64.786033630371 -4.032183170319 -0.101730 0.001071 0.994811
-199.672348022461 78.117935180664 -8.652946472168 -0.101730 0.001071 0.994811
-218.058563232422 77.636093139648 -10.548246383667 -0.101730 0.001071 0.994811
7.318283081055 64.958831787109 12.684124946594 -0.101730 0.001071 0.994811
-111.219177246094 62.334014892578 0.464972257614 -0.101730 0.001071 0.994811
-92.520797729492 80.298126220703 2.392516851425 -0.101730 0.001071 0.994811
-141.935943603516 75.270217895508 -2.701343059540 -0.101730 0.001071 0.994811
-200.371734619141 69.684265136719 -8.725073814392 -0.101730 0.001071 0.994811
-156.585571289063 72.626281738281 -4.211471557617 -0.101730 0.001071 0.994811
-73.150772094727 70.127723693848 4.389187812805 -0.101730 0.001071 0.994811
-131.787811279297 56.260192871094 -1.655318737030 -0.101730 0.001071 0.994811
-179.871826171875 53.857311248779 -6.611950397491 -0.101730 0.001071 0.994811
-157.374633789063 52.976200103760 -4.292886257172 -0.101730 0.001071 0.994811
-229.186660766602 58.246067047119 -11.695431709290 -0.101730 0.001071 0.994811
-201.913253784180 86.197601318359 -8.883914947510 -0.101730 0.001071 0.994811
-115.185981750488 61.997615814209 0.056062601507 -0.101730 0.001071 0.994811
-143.416015625000 60.053798675537 -2.853968858719 -0.101730 0.001071 0.994811
-166.601043701172 70.264480590820 -5.243901729584 -0.101730 0.001071 0.994811
-158.654754638672 62.533821105957 -4.424807548523 -0.101730 0.001071 0.994811
-124.688293457031 69.874298095703 -0.923430800438 -0.101730 0.001071 0.994811
-148.022277832031 51.646846771240 -3.328824758530 -0.101730 0.001071 0.994811
-182.159698486328 73.057235717773 -6.847716808319 -0.101730 0.001071 0.994811
-180.128799438477 43.154747009277 -6.638479232788 -0.101730 0.001071 0.994811
-159.080108642578 83.013137817383 -4.468577861786 -0.101730 0.001071 0.994811
-176.906066894531 77.435745239258 -6.306142807007 -0.101730 0.001071 0.994811
-161.518005371094 82.464759826660 -4.719882011414 -0.101730 0.001071 0.994811
-229.195236206055 75.361053466797 -11.696250915527 -0.101730 0.001071 0.994811
24.107818603516 70.057594299316 14.414850234985 -0.101730 0.001071 0.994811
-115.510131835938 66.115577697754 0.022664362565 -0.101730 0.001071 0.994811
7.939819335938 67.729911804199 12.748204231262 -0.101730 0.001071 0.994811
-208.637084960938 57.505874633789 -9.577132225037 -0.101730 0.001071 0.994811
-188.845245361328 68.600891113281 -7.536898136139 -0.101730 0.001071 0.994811
-128.977905273438 56.223537445068 -1.365666151047 -0.101730 0.001071 0.994811
-186.503723144531 58.369918823242 -7.295566082001 -0.101730 0.001071 0.994811
-193.235626220703 64.378929138184 -7.989484310150 -0.101730 0.001071 0.994811
-8.401336669922 59.602451324463 11.063685417175 -0.101730 0.001071 0.994811
-62.167694091797 69.507598876953 5.521351337433 -0.101730 0.001071 0.994811
-179.129776000977 81.757453918457 -6.535351753235 -0.101730 0.001071 0.994811
-193.391098022461 47.662761688232 -8.005574226379 -0.101730 0.001071 0.994811
-150.735794067383 51.949050903320 -3.608541011810 -0.101730 0.001071 0.994811
-162.586807250977 64.791236877441 -4.830124378204 -0.101730 0.001071 0.994811
-157.600479125977 49.927722930908 -4.316177368164 -0.101730 0.001071 0.994811
-199.406967163086 62.500907897949 -8.625648498535 -0.101730 0.001071 0.994811
-107.281509399414 57.761848449707 0.870859324932 -0.101730 0.001071 0.994811
-37.034866333008 68.857093811035 8.112103462219 -0.101730 0.001071 0.994811
-145.003067016602 64.768615722656 -3.017547607422 -0.101730 0.001071 0.994811
-228.497085571289 85.098426818848 -11.624247550964 -0.101730 0.001071 0.994811
-45.452850341797 59.333126068115 7.244321823120 -0.101730 0.001071 0.994811
-196.493469238281 73.643890380859 -8.325275421143 -0.101730 0.001071 0.994811
-209.971694946289 57.725479125977 -9.714705467224 -0.101730 0.001071 0.994811
-113.197372436523 70.575317382813 0.261085569859 -0.101730 0.001071 0.994811
-142.687377929688 69.580169677734 -2.778823614120 -0.101730 0.001071 0.994811
45.001708984375 70.711845397949 16.568651199341 -0.101730 0.001071 0.994811
-70.503982543945 54.764503479004 4.661969661713 -0.101730 0.001071 0.994811
-82.989776611328 62.821125030518 3.374931335449 -0.101730 0.001071 0.994811
-149.703628540039 82.652656555176 -3.502026081085 -0.101730 0.001071 0.994811
-211.286682128906 71.450988769531 -9.850207328796 -0.101730 0.001071 0.994811
-10.992980957031 60.147331237793 10.796533584595 -0.101730 0.001071 0.994811
-40.338897705078 67.892684936523 7.771512985229 -0.101730 0.001071 0.994811
-70.563781738281 65.638458251953 4.655846118927 -0.101730 0.001071 0.994811
-113.186492919922 78.712875366211 0.262237787247 -0.101730 0.001071 0.994811
31.261749267578 71.972747802734 15.152302742004 -0.101730 0.001071 0.994811
-159.769805908203 63.212425231934 -4.539747238159 -0.101730 0.001071 0.994811
-174.651000976563 79.580261230469 -6.073677539825 -0.101730 0.001071 0.994811
-226.624526977539 62.428974151611 -11.431304931641 -0.101730 0.001071 0.994811
-173.040802001953 47.932773590088 -5.907813072205 -0.101730 0.001071 0.994811
-122.775527954102 76.345512390137 -0.726233959198 -0.101730 0.001071 0.994811
-161.457489013672 55.255920410156 -4.713748931885 -0.101730 0.001071 0.994811
-165.882446289063 75.444602966309 -5.169806480408 -0.101730 0.001071 0.994811
-63.541549682617 54.578140258789 5.379673004150 -0.101730 0.001071 0.994811
-217.602706909180 49.726341247559 -10.501359939575 -0.101730 0.001071 0.994811
-216.867614746094 82.962814331055 -10.425459861755 -0.101730 0.001071 0.994811
-4.817199707031 63.640361785889 11.433162689209 -0.101730 0.001071 0.994811
-20.314270019531 60.750743865967 9.835674285889 -0.101730 0.001071 0.994811
-89.778274536133 63.203521728516 2.675158500671 -0.101730 0.001071 0.994811
-202.154373168945 69.885620117188 -8.908830642700 -0.101730 0.001071 0.994811
-99.242080688477 77.441184997559 1.699658393860 -0.101730 0.001071 0.994811
-216.707473754883 45.808025360107 -10.409091949463 -0.101730 0.001071 0.994811
-2.089828491211 72.948020935059 11.714342117310 -0.101730 0.001071 0.994811
-95.843597412109 77.965438842773 2.049984693527 -0.101730 0.001071 0.994811
-149.988967895508 70.091438293457 -3.531487464905 -0.101730 0.001071 0.994811
-32.289978027344 59.228736877441 8.601183891296 -0.101730 0.001071 0.994811
-65.844985961914 73.071807861328 5.142297744751 -0.101730 0.001071 0.994811
-172.918319702148 77.102256774902 -5.895077228546 -0.101730 0.001071 0.994811
-70.819869995117 62.147933959961 4.629435539246 -0.101730 0.001071 0.994811
-25.543304443359 69.992919921875 9.296689033508 -0.101730 0.001071 0.994811
-54.290069580078 60.670932769775 6.333363533020 -0.101730 0.001071 0.994811
-45.018157958984 57.219135284424 7.289121150970 -0.101730 0.001071 0.994811
-187.778579711914 46.324787139893 -7.427027225494 -0.101730 0.001071 0.994811
-177.907867431641 46.198757171631 -6.409529209137 -0.101730 0.001071 0.994811
-6.653182983398 73.178367614746 11.243940353394 -0.101730 0.001071 0.994811
-163.857666015625 61.121063232422 -4.961142539978 -0.101730 0.001071 0.994811
-103.658752441406 54.843612670898 1.244290590286 -0.101730 0.001071 0.994811
-44.021926879883 75.368942260742 7.391884803772 -0.101730 0.001071 0.994811
-144.212982177734 72.995483398438 -2.936073064804 -0.101730 0.001071 0.994811
-188.653564453125 71.712371826172 -7.517126083374 -0.101730 0.001071 0.994811
-121.334655761719 73.400100708008 -0.577715575695 -0.101730 0.001071 0.994811
-77.600509643555 54.892074584961 3.930442571640 -0.101730 0.001071 0.994811
-125.012138366699 62.183868408203 -0.956842124462 -0.101730 0.001071 0.994811
-138.177886962891 52.900691986084 -2.314035892487 -0.101730 0.001071 0.994811
-153.386917114258 67.495185852051 -3.881766319275 -0.101730 0.001071 0.994811
-85.875274658203 75.809516906738 3.077536106110 -0.101730 0.001071 0.994811
-137.358963012695 63.415817260742 -2.229579210281 -0.101730 0.001071 0.994811
-160.867889404297 51.225563049316 -4.652984619141 -0.101730 0.001071 0.994811
-142.362777709961 48.225921630859 -2.745442628860 -0.101730 0.001071 0.994811
-73.390655517578 68.921134948730 4.364456653595 -0.101730 0.001071 0.994811
-73.521820068359 76.594680786133 4.350964546204 -0.101730 0.001071 0.994811
-221.270416259766 68.764617919922 -10.879364967346 -0.101730 0.001071 0.994811
-168.553710937500 82.208389282227 -5.445141792297 -0.101730 0.001071 0.994811
-149.689834594727 46.985961914063 -3.500739574432 -0.101730 0.001071 0.994811
-90.643646240234 74.425010681152 2.585995435715 -0.101730 0.001071 0.994811
-58.437377929688 63.825569152832 5.905859947205 -0.101730 0.001071 0.994811
-29.503829956055 72.101341247559 8.888434410095 -0.101730 0.001071 0.994811
-209.918838500977 79.240676879883 -9.709175109863 -0.101730 0.001071 0.994811
-5.461196899414 60.330970764160 11.366765022278 -0.101730 0.001071 0.994811
-119.353385925293 62.439201354980 -0.373522549868 -0.101730 0.001071 0.994811
-97.480880737305 75.728973388672 1.881201267242 -0.101730 0.001071 0.994811
-42.074188232422 55.868167877197 7.592589378357 -0.101730 0.001071 0.994811
-230.277938842773 64.733001708984 -11.807898521423 -0.101730 0.001071 0.994811
-49.949142456055 58.554035186768 6.780829429626 -0.101730 0.001071 0.994811
-208.151977539063 45.292209625244 -9.527172088623 -0.101730 0.001071 0.994811
-156.697067260742 66.790863037109 -4.222987651825 -0.101730 0.001071 0.994811
-222.743209838867 82.501708984375 -11.031132698059 -0.101730 0.001071 0.994811
-173.758697509766 62.239208221436 -5.981761455536 -0.101730 0.001071 0.994811
-96.088073730469 69.274436950684 2.024750232697 -0.101730 0.001071 0.994811
-207.038681030273 81.886703491211 -9.412272453308 -0.101730 0.001071 0.994811
-66.390487670898 61.655536651611 5.086024284363 -0.101730 0.001071 0.994811
-79.824508666992 52.493129730225 3.701175689697 -0.101730 0.001071 0.994811
-81.180999755859 65.491508483887 3.561394691467 -0.101730 0.001071 0.994811
-75.394943237305 74.209426879883 4.157869338989 -0.101730 0.001071 0.994811
10.819900512695 72.241516113281 13.045108795166 -0.101730 0.001071 0.994811
-229.773162841797 63.011169433594 -11.755871772766 -0.101730 0.001071 0.994811
-214.481216430664 79.710754394531 -10.179475784302 -0.101730 0.001071 0.994811
18.210494995117 70.382308959961 13.806941986084 -0.101730 0.001071 0.994811
-117.495697021484 55.169799804688 -0.182054743171 -0.101730 0.001071 0.994811
-74.667572021484 57.953720092773 4.232787609100 -0.101730 0.001071 0.994811
-21.582229614258 66.123268127441 9.704990386963 -0.101730 0.001071 0.994811
-178.884307861328 64.442436218262 -6.510114192963 -0.101730 0.001071 0.994811
-116.928855895996 80.809997558594 -0.123526617885 -0.101730 0.001071 0.994811
-134.194915771484 72.291717529297 -1.903389215469 -0.101730 0.001071 0.994811
-42.746444702148 57.907424926758 7.523297786713 -0.101730 0.001071 0.994811
-175.862213134766 81.338485717773 -6.198524951935 -0.101730 0.001071 0.994811
-78.896697998047 59.805328369141 3.796844959259 -0.101730 0.001071 0.994811
-59.244567871094 60.581176757813 5.822639942169 -0.101730 0.001071 0.994811
-88.828521728516 77.742774963379 2.773115396500 -0.101730 0.001071 0.994811
-160.831161499023 49.022048950195 -4.649208068848 -0.101730 0.001071 0.994811
-181.626739501953 70.193389892578 -6.792788982391 -0.101730 0.001071 0.994811
-79.851989746094 57.036571502686 3.698361396790 -0.101730 0.001071 0.994811
-146.487609863281 69.828872680664 -3.170559167862 -0.101730 0.001071 0.994811
-170.435852050781 57.140815734863 -5.639252662659 -0.101730 0.001071 0.994811
-61.001251220703 63.077465057373 5.641566276550 -0.101730 0.001071 0.994811
-52.641128540039 75.755104064941 6.503396987915 -0.101730 0.001071 0.994811
-227.862106323242 52.372184753418 -11.558915138245 -0.101730 0.001071 0.994811
-139.409606933594 68.733718872070 -2.440945863724 -0.101730 0.001071 0.994811
-89.878265380859 61.888862609863 2.664844512939 -0.101730 0.001071 0.994811
-182.835220336914 63.377479553223 -6.917387962341 -0.101730 0.001071 0.994811
-131.333511352539 58.162227630615 -1.608480691910 -0.101730 0.001071 0.994811
-99.173782348633 76.464736938477 1.706694722176 -0.101730 0.001071 0.994811
-150.680755615234 70.072235107422 -3.602799177170 -0.101730 0.001071 0.994811
-110.934616088867 78.314514160156 0.494365513325 -0.101730 0.001071 0.994811
-51.408935546875 72.378578186035 6.630401611328 -0.101730 0.001071 0.994811
-183.660293579102 61.859588623047 -7.002444744110 -0.101730 0.001071 0.994811
-146.678924560547 81.614898681641 -3.190237760544 -0.101730 0.001071 0.994811
-159.593505859375 82.328704833984 -4.521501541138 -0.101730 0.001071 0.994811
-128.996276855469 54.532634735107 -1.367567420006 -0.101730 0.001071 0.994811
-109.292770385742 80.154846191406 0.663617610931 -0.101730 0.001071 0.994811
-144.701080322266 58.743202209473 -2.986441612244 -0.101730 0.001071 0.994811
-135.865936279297 52.125236511230 -2.075716257095 -0.101730 0.001071 0.994811
-231.394714355469 67.275413513184 -11.923008918762 -0.101730 0.001071 0.994811
-48.499343872070 70.222610473633 6.930321216583 -0.101730 0.001071 0.994811
-95.121383666992 68.639251708984 2.124396800995 -0.101730 0.001071 0.994811
-145.442687988281 72.184280395508 -3.062836170197 -0.101730 0.001071 0.994811
-177.182922363281 77.496749877930 -6.334682464600 -0.101730 0.001071 0.994811
-30.470092773438 59.211151123047 8.788780212402 -0.101730 0.001071 0.994811
-212.666076660156 57.587539672852 -9.992450714111 -0.101730 0.001071 0.994811
-78.718444824219 63.816730499268 3.815234661102 -0.101730 0.001071 0.994811
-165.953582763672 73.030143737793 -5.177149772644 -0.101730 0.001071 0.994811
47.717346191406 66.425750732422 16.848567962646 -0.101730 0.001071 0.994811
-219.236343383789 41.057899475098 -10.669793128967 -0.101730 0.001071 0.994811
-75.992446899414 71.540130615234 4.096267700195 -0.101730 0.001071 0.994811
-156.340866088867 59.287433624268 -4.186298370361 -0.101730 0.001071 0.994811
-113.563133239746 52.626907348633 0.223314508796 -0.101730 0.001071 0.994811
-175.623413085938 57.013011932373 -6.174000263214 -0.101730 0.001071 0.994811
-50.521743774414 61.767421722412 6.721814632416 -0.101730 0.001071 0.994811
33.169738769531 73.817619323730 15.348993301392 -0.101730 0.001071 0.994811
-71.486373901367 68.563964843750 4.560753345490 -0.101730 0.001071 0.994811
-82.166854858398 77.386314392090 3.459816217422 -0.101730 0.001071 0.994811
-113.840873718262 65.143630981445 0.194731548429 -0.101730 0.001071 0.994811
4.656906127930 61.207523345947 12.409770011902 -0.101730 0.001071 0.994811
-46.995819091797 62.996353149414 7.085282325745 -0.101730 0.001071 0.994811
-139.192428588867 78.596221923828 -2.418520450592 -0.101730 0.001071 0.994811
-197.378646850586 63.556491851807 -8.416560173035 -0.101730 0.001071 0.994811
-65.132690429688 56.006755828857 5.215660572052 -0.101730 0.001071 0.994811
-152.291229248047 65.353492736816 -3.768829345703 -0.101730 0.001071 0.994811
-159.857208251953 59.676048278809 -4.548770427704 -0.101730 0.001071 0.994811
-37.303833007813 76.010711669922 8.084404945374 -0.101730 0.001071 0.994811
-25.604003906250 66.219161987305 9.290414810181 -0.101730 0.001071 0.994811
-224.307952880859 60.721626281738 -11.192511558533 -0.101730 0.001071 0.994811
-89.274734497070 65.687675476074 2.727073431015 -0.101730 0.001071 0.994811
-16.632949829102 72.526412963867 10.215197563171 -0.101730 0.001071 0.994811
-67.267196655273 62.395175933838 4.995653629303 -0.101730 0.001071 0.994811
-9.963897705078 74.827117919922 10.902671813965 -0.101730 0.001071 0.994811
-220.769165039063 55.532333374023 -10.827745437622 -0.101730 0.001071 0.994811
-18.659393310547 73.569549560547 10.006311416626 -0.101730 0.001071 0.994811
-76.925674438477 77.393928527832 4.000090122223 -0.101730 0.001071 0.994811
-176.942901611328 57.410530090332 -6.310015678406 -0.101730 0.001071 0.994811
-135.363815307617 78.996307373047 -2.023856401443 -0.101730 0.001071 0.994811
-93.434921264648 67.097740173340 2.298235893250 -0.101730 0.001071 0.994811
39.308990478516 69.538681030273 15.981823921204 -0.101730 0.001071 0.994811
-142.651062011719 55.004589080811 -2.775134563446 -0.101730 0.001071 0.994811
-139.901458740234 47.717197418213 -2.491726160049 -0.101730 0.001071 0.994811
-201.151824951172 79.115562438965 -8.805450439453 -0.101730 0.001071 0.994811
-180.299621582031 70.943557739258 -6.655983448029 -0.101730 0.001071 0.994811
-98.333999633789 61.950519561768 1.793207526207 -0.101730 0.001071 0.994811
-120.751327514648 58.977989196777 -0.517639100552 -0.101730 0.001071 0.994811
-73.356216430664 70.288261413574 4.368013381958 -0.101730 0.001071 0.994811
83.994232177734 67.946044921875 20.588085174561 -0.101730 0.001071 0.994811
-170.092697143555 80.375938415527 -5.603791713715 -0.101730 0.001071 0.994811
-200.495559692383 76.681404113770 -8.737810134888 -0.101730 0.001071 0.994811
-79.333450317383 60.691665649414 3.751826524734 -0.101730 0.001071 0.994811
-24.617904663086 74.585174560547 9.392098426819 -0.101730 0.001071 0.994811
-75.083831787109 70.635742187500 4.189926147461 -0.101730 0.001071 0.994811
61.076507568359 68.173149108887 18.225671768188 -0.101730 0.001071 0.994811
-140.869110107422 48.768989562988 -2.591470479965 -0.101730 0.001071 0.994811
-125.861198425293 78.658660888672 -1.044303178787 -0.101730 0.001071 0.994811
-190.631698608398 72.882934570313 -7.721032619476 -0.101730 0.001071 0.994811
-145.861450195313 65.551940917969 -3.106029033661 -0.101730 0.001071 0.994811
-217.372421264648 58.764778137207 -10.477586746216 -0.101730 0.001071 0.994811
107.523193359375 4.352262496948 21.888347625732 -0.999999 0.000978 0.000978
107.523193359375 5.619305133820 15.544030189514 -0.999999 0.000978 0.000978
107.523193359375 -18.608840942383 27.460935592651 -0.999999 0.000978 0.000978
107.523193359375 -15.462528228760 13.351327896118 -0.999999 0.000978 0.000978
107.523193359375 -9.942855834961 9.592360496521 -0.999999 0.000978 0.000978
107.523193359375 7.659875392914 16.516286849976 -0.999999 0.000978 0.000978
107.523193359375 6.791989326477 22.514604568481 -0.999999 0.000978 0.000978
107.523193359375 16.785522460938 21.852567672729 -0.999999 0.000978 0.000978
107.523193359375 6.853668212891 23.902616500854 -0.999999 0.000978 0.000978
107.523193359375 16.516792297363 22.798954010010 -0.999999 0.000978 0.000978
107.523193359375 -6.764239788055 11.999979019165 -0.999999 0.000978 0.000978
107.523193359375 -19.090717315674 4.329699516296 -0.999999 0.000978 0.000978
107.523193359375 -15.701340675354 0.812850236893 -0.999999 0.000978 0.000978
107.523193359375 -17.449844360352 5.543403625488 -0.999999 0.000978 0.000978
107.523193359375 -12.053701400757 22.560661315918 -0.999999 0.000978 0.000978
107.523193359375 -8.692050933838 22.882232666016 -0.999999 0.000978 0.000978
107.523193359375 -14.675418853760 14.957521438599 -0.999999 0.000978 0.000978
107.523193359375 -2.697323799133 16.805089950562 -0.999999 0.000978 0.000978
107.523193359375 10.746318817139 22.121887207031 -0.999999 0.000978 0.000978
107.523193359375 -15.403520584106 25.623703002930 -0.999999 0.000978 0.000978
107.523193359375 -7.584669113159 10.844643592834 -0.999999 0.000978 0.000978
107.523193359375 -6.753201484680 15.283984184265 -0.999999 0.000978 0.000978
107.523193359375 -12.397327423096 7.480763912201 -0.999999 0.000978 0.000978
107.523193359375 2.035781860352 1.433839797974 -0.999999 0.000978 0.000978
107.523193359375 3.328994750977 6.852709770203 -0.999999 0.000978 0.000978
107.523193359375 9.016321182251 3.594172000885 -0.999999 0.000978 0.000978
107.523193359375 15.924562454224 11.351358413696 -0.999999 0.000978 0.000978
107.523193359375 8.393054962158 12.729448318481 -0.999999 0.000978 0.000978
107.523193359375 18.275199890137 13.495273590088 -0.999999 0.000978 0.000978
107.523193359375 15.073340415955 12.463889122009 -0.999999 0.000978 0.000978
107.523193359375 0.415023803711 9.691937446594 -0.999999 0.000978 0.000978
107.523193359375 1.754117965698 5.096467018127 -0.999999 0.000978 0.000978
107.523193359375 9.764378547668 11.556034088135 -0.999999 0.000978 0.000978
107.523193359375 8.723859786987 4.494884490967 -0.999999 0.000978 0.000978
107.523193359375 10.085931777954 13.499334335327 -0.999999 0.000978 0.000978
107.523193359375 5.983897209167 14.010988235474 -0.999999 0.000978 0.000978
107.523193359375 -1.943689346313 7.954180717468 -0.999999 0.000978 0.000978
107.523193359375 -13.741516113281 0.162839889526 -0.999999 0.000978 0.000978
107.523193359375 70.348480224609 7.614562511444 -0.999999 0.000978 0.000978
107.523193359375 74.534515380859 16.166894912720 -0.999999 0.000978 0.000978
107.523193359375 78.029579162598 19.436489105225 -0.999999 0.000978 0.000978
107.523193359375 72.874450683594 9.745388984680 -0.999999 0.000978 0.000978
107.523193359375 78.380287170410 22.760023117065 -0.999999 0.000978 0.000978
107.523193359375 80.239616394043 21.948158264160 -0.999999 0.000978 0.000978
107.523193359375 78.261962890625 24.931856155396 -0.999999 0.000978 0.000978
107.523193359375 79.036994934082 3.265029907227 -0.999999 0.000978 0.000978
107.523193359375 72.255523681641 4.326347351074 -0.999999 0.000978 0.000978
107.523193359375 76.642730712891 9.903602600098 -0.999999 0.000978 0.000978
107.523193359375 87.315917968750 14.411146163940 -0.999999 0.000978 0.000978
107.523193359375 83.495330810547 13.218448638916 -0.999999 0.000978 0.000978
107.523193359375 86.906120300293 25.329788208008 -0.999999 0.000978 0.000978
107.523193359375 81.692192077637 7.248386383057 -0.999999 0.000978 0.000978
107.523193359375 84.948394775391 9.846813201904 -0.999999 0.000978 0.000978
107.523193359375 80.338691711426 6.316581726074 -0.999999 0.000978 0.000978
107.523193359375 85.980949401855 16.029201507568 -0.999999 0.000978 0.000978
107.523193359375 79.147872924805 9.845198631287 -0.999999 0.000978 0.000978
107.523193359375 58.483043670654 25.955663681030 -0.999999 0.000978 0.000978
107.523193359375 39.375015258789 24.887777328491 -0.999999 0.000978 0.000978
107.523193359375 50.384094238281 26.911151885986 -0.999999 0.000978 0.000978
107.523193359375 26.504829406738 27.775655746460 -0.999999 0.000978 0.000978
107.523193359375 -1.969878196716 27.880962371826 -0.999999 0.000978 0.000978
107.523193359375 66.632530212402 27.099298477173 -0.999999 0.000978 0.000978
107.523193359375 20.317211151123 26.920919418335 -0.999999 0.000978 0.000978
107.523193359375 58.249931335449 24.658262252808 -0.999999 0.000978 0.000978
107.523193359375 10.899822235107 26.901830673218 -0.999999 0.000978 0.000978
107.523193359375 45.236854553223 25.679218292236 -0.999999 0.000978 0.000978
107.523193359375 10.465895652771 26.215200424194 -0.999999 0.000978 0.000978
107.523193359375 30.956300735474 24.081527709961 -0.999999 0.000978 0.000978
107.523193359375 -0.042551994324 26.146619796753 -0.999999 0.000978 0.000978
107.523193359375 6.390327453613 26.551723480225 -0.999999 0.000978 0.000978
107.523193359375 -1.249113082886 25.740961074829 -0.999999 0.000978 0.000978
107.523193359375 37.377281188965 0.872238397598 -0.999999 0.000978 0.000978
107.523193359375 27.624227523804 -0.962226271629 -0.999999 0.000978 0.000978
107.523193359375 11.918704032898 -1.172159910202 -0.999999 0.000978 0.000978
