//X Y Z Nx Ny Nz
629
-86.070411682129 -24.539754867554 9.977054595947 0.000978 0.000978 0.999999
44.120079040527 -24.813955307007 9.977053642273 0.000978 0.000978 0.999999
-10.672737121582 -24.211950302124 9.977054595947 0.000978 0.000978 0.999999
-29.581771850586 -24.650478363037 9.977053642273 0.000978 0.000978 0.999999
43.054821014404 -22.024208068848 9.977058410645 0.000978 0.000978 0.999999
-64.482360839844 -20.240045547485 9.977062225342 0.000978 0.000978 0.999999
86.550575256348 -24.062467575073 9.977054595947 0.000978 0.000978 0.999999
-52.342044830322 -18.624923706055 9.977065086365 0.000978 0.000978 0.999999
87.331100463867 -24.178546905518 9.977054595947 0.000978 0.000978 0.999999
37.826408386230 -24.817552566528 9.977053642273 0.000978 0.000978 0.999999
-74.277366638184 -19.785566329956 9.977062225342 0.000978 0.000978 0.999999
-99.022140502930 -24.406696319580 9.977054595947 0.000978 0.000978 0.999999
-72.059356689453 -19.325317382813 9.977063179016 0.000978 0.000978 0.999999
-82.630187988281 -18.997283935547 9.977064132690 0.000978 0.000978 0.999999
-33.479984283447 -20.722229003906 9.977061271667 0.000978 0.000978 0.999999
-53.757518768311 -18.752340316772 9.977064132690 0.000978 0.000978 0.999999
57.641746520996 -23.257978439331 9.977056503296 0.000978 0.000978 0.999999
-105.571502685547 -22.484554290771 9.977057456970 0.000978 0.000978 0.999999
-59.830535888672 -18.971317291260 9.977064132690 0.000978 0.000978 0.999999
-86.914550781250 -19.596195220947 9.977063179016 0.000978 0.000978 0.999999
-48.843704223633 -19.872789382935 9.977062225342 0.000978 0.000978 0.999999
-87.537147521973 -20.252096176147 9.977062225342 0.000978 0.000978 0.999999
-112.498481750488 -24.217742919922 9.977054595947 0.000978 0.000978 0.999999
8.835762023926 -20.823242187500 9.977060317993 0.000978 0.000978 0.999999
-92.931503295898 -23.118099212646 9.977056503296 0.000978 0.000978 0.999999
-73.897216796875 -18.944423675537 9.977064132690 0.000978 0.000978 0.999999
-73.972724914551 -23.041685104370 9.977056503296 0.000978 0.000978 0.999999
-113.428504943848 -22.245483398438 9.977058410645 0.000978 0.000978 0.999999
-86.859779357910 -20.171417236328 9.977062225342 0.000978 0.000978 0.999999
-71.396980285645 -21.722234725952 9.977059364319 0.000978 0.000978 0.999999
3.169923782349 -21.051349639893 9.977060317993 0.000978 0.000978 0.999999
-69.590972900391 -21.096446990967 9.977060317993 0.000978 0.000978 0.999999
-39.765949249268 -20.285299301147 9.977061271667 0.000978 0.000978 0.999999
-48.240341186523 -20.785301208496 9.977061271667 0.000978 0.000978 0.999999
-54.169692993164 -22.806373596191 9.977057456970 0.000978 0.000978 0.999999
-46.479125976563 -18.899276733398 9.977064132690 0.000978 0.000978 0.999999
-40.869407653809 -19.695652008057 9.977063179016 0.000978 0.000978 0.999999
-27.446640014648 -20.678277969360 9.977061271667 0.000978 0.000978 0.999999
56.269866943359 -23.652786254883 9.977055549622 0.000978 0.000978 0.999999
-59.336471557617 -24.791540145874 9.977053642273 0.000978 0.000978 0.999999
-72.457031250000 -24.674495697021 9.977053642273 0.000978 0.000978 0.999999
-0.731422424316 -24.580026626587 9.977053642273 0.000978 0.000978 0.999999
-6.924354553223 -23.388017654419 9.977056503296 0.000978 0.000978 0.999999
-41.780288696289 -24.208082199097 9.977054595947 0.000978 0.000978 0.999999
-67.477912902832 -20.861255645752 9.977060317993 0.000978 0.000978 0.999999
-2.350990295410 -23.793844223022 9.977055549622 0.000978 0.000978 0.999999
-67.446800231934 -23.837366104126 9.977055549622 0.000978 0.000978 0.999999
-56.330604553223 -21.364761352539 9.977059364319 0.000978 0.000978 0.999999
-9.503482818604 -21.602218627930 9.977059364319 0.000978 0.000978 0.999999
30.626941680908 -22.302635192871 9.977058410645 0.000978 0.000978 0.999999
-68.818893432617 -21.271842956543 9.977060317993 0.000978 0.000978 0.999999
-33.875045776367 -24.671844482422 9.977053642273 0.000978 0.000978 0.999999
-23.560264587402 -22.809350967407 9.977057456970 0.000978 0.000978 0.999999
-62.364482879639 -19.510541915894 9.977063179016 0.000978 0.000978 0.999999
22.922019958496 -23.570999145508 9.977055549622 0.000978 0.000978 0.999999
47.526969909668 -24.629148483276 9.977053642273 0.000978 0.000978 0.999999
-39.463085174561 -19.687471389771 9.977063179016 0.000978 0.000978 0.999999
49.364570617676 -24.086557388306 9.977054595947 0.000978 0.000978 0.999999
-44.400756835938 -24.168897628784 9.977054595947 0.000978 0.000978 0.999999
58.676338195801 -22.827020645142 9.977057456970 0.000978 0.000978 0.999999
-71.194900512695 -20.347686767578 9.977061271667 0.000978 0.000978 0.999999
-53.195144653320 -23.651874542236 9.977055549622 0.000978 0.000978 0.999999
-18.766777038574 -21.939426422119 9.977058410645 0.000978 0.000978 0.999999
-18.733879089355 -23.020975112915 9.977056503296 0.000978 0.000978 0.999999
-89.147964477539 -22.813663482666 9.977057456970 0.000978 0.000978 0.999999
-46.807613372803 -20.127719879150 9.977062225342 0.000978 0.000978 0.999999
6.425903320313 -24.061302185059 9.977054595947 0.000978 0.000978 0.999999
-73.058715820313 -18.577114105225 9.977065086365 0.000978 0.000978 0.999999
-87.283325195313 -23.554487228394 9.977055549622 0.000978 0.000978 0.999999
97.755584716797 -23.871435165405 9.977055549622 0.000978 0.000978 0.999999
-59.228771209717 -18.161106109619 9.977065086365 0.000978 0.000978 0.999999
-16.227737426758 -22.282421112061 9.977058410645 0.000978 0.000978 0.999999
-7.846630096436 -21.792968750000 9.977059364319 0.000978 0.000978 0.999999
-62.698493957520 -24.310420989990 9.977054595947 0.000978 0.000978 0.999999
-4.627891540527 -21.417249679565 9.977059364319 0.000978 0.000978 0.999999
-59.960010528564 -18.052257537842 9.977066040039 0.000978 0.000978 0.999999
91.166992187500 -24.364408493042 9.977054595947 0.000978 0.000978 0.999999
-114.791221618652 -24.274286270142 9.977054595947 0.000978 0.000978 0.999999
-23.406391143799 -19.883512496948 9.977062225342 0.000978 0.000978 0.999999
-67.219947814941 -20.568992614746 9.977061271667 0.000978 0.000978 0.999999
-79.765670776367 -19.639225006104 9.977063179016 0.000978 0.000978 0.999999
-58.725227355957 -23.768362045288 9.977055549622 0.000978 0.000978 0.999999
81.030502319336 -23.850028991699 9.977055549622 0.000978 0.000978 0.999999
7.651098728180 -20.470170974731 9.977061271667 0.000978 0.000978 0.999999
-20.344337463379 -23.268499374390 9.977056503296 0.000978 0.000978 0.999999
31.612182617188 -23.629730224609 9.977055549622 0.000978 0.000978 0.999999
65.997276306152 -22.655309677124 9.977057456970 0.000978 0.000978 0.999999
-53.772956848145 -21.642639160156 9.977059364319 0.000978 0.000978 0.999999
16.108951568604 -21.846569061279 9.977059364319 0.000978 0.000978 0.999999
24.162742614746 -21.148204803467 9.977060317993 0.000978 0.000978 0.999999
-14.006984710693 -21.431110382080 9.977059364319 0.000978 0.000978 0.999999
37.563697814941 -23.827411651611 9.977055549622 0.000978 0.000978 0.999999
4.400596618652 -23.771364212036 9.977055549622 0.000978 0.000978 0.999999
-79.392097473145 -19.366378784180 9.977063179016 0.000978 0.000978 0.999999
-7.668823242188 -22.949251174927 9.977057456970 0.000978 0.000978 0.999999
-78.526496887207 -20.512004852295 9.977061271667 0.000978 0.000978 0.999999
-49.469100952148 -20.833694458008 9.977060317993 0.000978 0.000978 0.999999
-56.154678344727 -24.399818420410 9.977054595947 0.000978 0.000978 0.999999
-40.434333801270 -21.948564529419 9.977058410645 0.000978 0.000978 0.999999
41.738510131836 -23.273124694824 9.977056503296 0.000978 0.000978 0.999999
-71.998039245605 -21.351774215698 9.977060317993 0.000978 0.000978 0.999999
13.757240295410 -23.363973617554 9.977056503296 0.000978 0.000978 0.999999
-94.476661682129 -22.544498443604 9.977057456970 0.000978 0.000978 0.999999
-29.420173645020 -21.519632339478 9.977059364319 0.000978 0.000978 0.999999
13.949140548706 -21.598827362061 9.977059364319 0.000978 0.000978 0.999999
-70.293807983398 -24.155488967896 9.977054595947 0.000978 0.000978 0.999999
-98.213218688965 -19.829891204834 9.977062225342 0.000978 0.000978 0.999999
-117.289131164551 -24.298353195190 9.977054595947 0.000978 0.000978 0.999999
107.821380615234 -24.116209030151 9.977054595947 0.000978 0.000978 0.999999
5.527519226074 -24.326078414917 9.977054595947 0.000978 0.000978 0.999999
-87.155624389648 -22.584896087646 9.977057456970 0.000978 0.000978 0.999999
-18.082534790039 -22.442653656006 9.977057456970 0.000978 0.000978 0.999999
-6.046783447266 -24.781063079834 9.977053642273 0.000978 0.000978 0.999999
80.545707702637 -23.820091247559 9.977055549622 0.000978 0.000978 0.999999
-78.816123962402 -21.055950164795 9.977060317993 0.000978 0.000978 0.999999
25.684425354004 -22.849430084229 9.977057456970 0.000978 0.000978 0.999999
-119.672294616699 -23.249248504639 9.977056503296 0.000978 0.000978 0.999999
-25.204433441162 -21.281932830811 9.977060317993 0.000978 0.000978 0.999999
-104.923324584961 -23.851148605347 9.977055549622 0.000978 0.000978 0.999999
-67.241004943848 -20.352195739746 9.977061271667 0.000978 0.000978 0.999999
-47.907463073730 -22.305397033691 9.977058410645 0.000978 0.000978 0.999999
7.441549301147 -21.392639160156 9.977059364319 0.000978 0.000978 0.999999
49.648502349854 -23.087909698486 9.977056503296 0.000978 0.000978 0.999999
-15.023788452148 -21.873180389404 9.977059364319 0.000978 0.000978 0.999999
-4.051567077637 -24.126735687256 9.977054595947 0.000978 0.000978 0.999999
-60.861183166504 -18.402355194092 9.977065086365 0.000978 0.000978 0.999999
-63.014854431152 -22.779018402100 9.977057456970 0.000978 0.000978 0.999999
-90.185691833496 -23.989786148071 9.977055549622 0.000978 0.000978 0.999999
-87.285682678223 -20.214378356934 9.977062225342 0.000978 0.000978 0.999999
-100.139091491699 -20.611267089844 9.977061271667 0.000978 0.000978 0.999999
-78.077621459961 -20.230543136597 9.977062225342 0.000978 0.000978 0.999999
-49.586143493652 -22.414474487305 9.977058410645 0.000978 0.000978 0.999999
-113.718841552734 -23.998420715332 9.977055549622 0.000978 0.000978 0.999999
-61.625259399414 -20.985275268555 9.977060317993 0.000978 0.000978 0.999999
-65.612899780273 -20.934171676636 9.977060317993 0.000978 0.000978 0.999999
-35.656944274902 -19.896350860596 9.977062225342 0.000978 0.000978 0.999999
-19.292175292969 -21.074420928955 9.977060317993 0.000978 0.000978 0.999999
14.461643218994 -21.594871520996 9.977059364319 0.000978 0.000978 0.999999
45.196144104004 -24.375173568726 9.977054595947 0.000978 0.000978 0.999999
-116.005302429199 -23.624563217163 9.977055549622 0.000978 0.000978 0.999999
55.980331420898 -22.924015045166 9.977057456970 0.000978 0.000978 0.999999
-68.298370361328 -20.133605957031 9.977062225342 0.000978 0.000978 0.999999
-101.918380737305 -23.560672760010 9.977055549622 0.000978 0.000978 0.999999
-49.531272888184 -18.430763244629 9.977065086365 0.000978 0.000978 0.999999
-29.591484069824 -21.926658630371 9.977058410645 0.000978 0.000978 0.999999
-68.238594055176 -23.111255645752 9.977056503296 0.000978 0.000978 0.999999
6.895195007324 -23.744731903076 9.977055549622 0.000978 0.000978 0.999999
27.625131607056 -21.466981887817 9.977059364319 0.000978 0.000978 0.999999
-83.240547180176 -20.372877120972 9.977061271667 0.000978 0.000978 0.999999
-55.059680938721 -20.092987060547 9.977062225342 0.000978 0.000978 0.999999
-39.257736206055 -23.301897048950 9.977056503296 0.000978 0.000978 0.999999
-105.461204528809 -21.850803375244 9.977059364319 0.000978 0.000978 0.999999
-89.681297302246 -23.556148529053 9.977055549622 0.000978 0.000978 0.999999
-115.159317016602 -23.045141220093 9.977056503296 0.000978 0.000978 0.999999
-77.515052795410 -23.982833862305 9.977055549622 0.000978 0.000978 0.999999
-111.053192138672 -23.562303543091 9.977055549622 0.000978 0.000978 0.999999
-75.907363891602 -18.235067367554 9.977065086365 0.000978 0.000978 0.999999
28.960945129395 -23.485103607178 9.977056503296 0.000978 0.000978 0.999999
-22.774620056152 -20.680324554443 9.977061271667 0.000978 0.000978 0.999999
40.988357543945 -24.644212722778 9.977053642273 0.000978 0.000978 0.999999
-42.857612609863 -18.953369140625 9.977064132690 0.000978 0.000978 0.999999
-2.881671905518 -21.236803054810 9.977060317993 0.000978 0.000978 0.999999
-56.729530334473 -18.148118972778 9.977065086365 0.000978 0.000978 0.999999
30.903717041016 -24.705717086792 9.977053642273 0.000978 0.000978 0.999999
-36.085914611816 -22.969978332520 9.977056503296 0.000978 0.000978 0.999999
-82.288185119629 -21.335929870605 9.977060317993 0.000978 0.000978 0.999999
81.353546142578 -22.907936096191 9.977056503296 0.000978 0.000978 0.999999
82.306518554688 -20.001091003418 9.977063179016 0.000978 0.000978 0.999999
69.949310302734 -20.172523498535 9.977062225342 0.000978 0.000978 0.999999
-8.111480712891 -17.414987564087 9.977066993713 0.000978 0.000978 0.999999
104.464721679688 -23.751659393311 9.977055549622 0.000978 0.000978 0.999999
-54.286621093750 -18.143056869507 9.977065086365 0.000978 0.000978 0.999999
107.480781555176 -21.563299179077 9.977059364319 0.000978 0.000978 0.999999
17.848907470703 -19.881772994995 9.977062225342 0.000978 0.000978 0.999999
118.996315002441 -23.971509933472 9.977055549622 0.000978 0.000978 0.999999
49.639823913574 -18.889183044434 9.977064132690 0.000978 0.000978 0.999999
-16.580688476563 -18.842014312744 9.977064132690 0.000978 0.000978 0.999999
15.902763366699 -19.255586624146 9.977064132690 0.000978 0.000978 0.999999
66.263854980469 -19.495897293091 9.977063179016 0.000978 0.000978 0.999999
112.106605529785 -23.163848876953 9.977056503296 0.000978 0.000978 0.999999
101.885612487793 -22.538362503052 9.977057456970 0.000978 0.000978 0.999999
84.933189392090 -18.259328842163 9.977065086365 0.000978 0.000978 0.999999
104.850204467773 -22.528589248657 9.977057456970 0.000978 0.000978 0.999999
85.854988098145 -18.689575195313 9.977064132690 0.000978 0.000978 0.999999
102.009941101074 -21.721513748169 9.977059364319 0.000978 0.000978 0.999999
38.668083190918 -19.757160186768 9.977062225342 0.000978 0.000978 0.999999
75.243774414063 -19.854999542236 9.977062225342 0.000978 0.000978 0.999999
65.759231567383 -21.394521713257 9.977060317993 0.000978 0.000978 0.999999
12.734313964844 -20.164369583130 9.977062225342 0.000978 0.000978 0.999999
87.005218505859 -22.910263061523 9.977057456970 0.000978 0.000978 0.999999
69.284713745117 -19.606094360352 9.977062225342 0.000978 0.000978 0.999999
49.536117553711 -20.661764144897 9.977061271667 0.000978 0.000978 0.999999
-27.932388305664 -18.004257202148 9.977066040039 0.000978 0.000978 0.999999
41.792076110840 -20.873525619507 9.977061271667 0.000978 0.000978 0.999999
74.578842163086 -17.633268356323 9.977066993713 0.000978 0.000978 0.999999
60.960556030273 -19.690715789795 9.977062225342 0.000978 0.000978 0.999999
-10.335830688477 -19.111167907715 9.977064132690 0.000978 0.000978 0.999999
78.109619140625 -21.694314956665 9.977059364319 0.000978 0.000978 0.999999
31.632392883301 -19.055034637451 9.977063179016 0.000978 0.000978 0.999999
-45.493057250977 -17.427314758301 9.977066993713 0.000978 0.000978 0.999999
48.219924926758 -19.789733886719 9.977062225342 0.000978 0.000978 0.999999
-25.606796264648 -17.867664337158 9.977066040039 0.000978 0.000978 0.999999
65.050415039063 -22.321613311768 9.977058410645 0.000978 0.000978 0.999999
100.446014404297 -20.979372024536 9.977061271667 0.000978 0.000978 0.999999
59.425216674805 -20.976278305054 9.977060317993 0.000978 0.000978 0.999999
74.971809387207 -17.614997863770 9.977066993713 0.000978 0.000978 0.999999
55.690933227539 -20.063884735107 9.977062225342 0.000978 0.000978 0.999999
101.172554016113 -22.600383758545 9.977058410645 0.000978 0.000978 0.999999
99.701782226563 -23.515178680420 9.977055549622 0.000978 0.000978 0.999999
4.257461547852 -17.559217453003 9.977066993713 0.000978 0.000978 0.999999
31.586189270020 -21.073060989380 9.977060317993 0.000978 0.000978 0.999999
64.095153808594 -17.832233428955 9.977066040039 0.000978 0.000978 0.999999
45.137508392334 -18.130134582520 9.977066040039 0.000978 0.000978 0.999999
68.558128356934 -19.688589096069 9.977063179016 0.000978 0.000978 0.999999
78.031272888184 -18.067920684814 9.977066040039 0.000978 0.000978 0.999999
85.692062377930 -18.756885528564 9.977064132690 0.000978 0.000978 0.999999
-13.455688476563 -18.682250976563 9.977064132690 0.000978 0.000978 0.999999
67.393447875977 -21.156641006470 9.977060317993 0.000978 0.000978 0.999999
41.189235687256 -17.850357055664 9.977066040039 0.000978 0.000978 0.999999
9.515090942383 -18.131080627441 9.977066040039 0.000978 0.000978 0.999999
106.972908020020 -23.101478576660 9.977056503296 0.000978 0.000978 0.999999
125.783966064453 -23.735248565674 9.977055549622 0.000978 0.000978 0.999999
32.001457214355 -19.709976196289 9.977063179016 0.000978 0.000978 0.999999
16.815528869629 -20.369972229004 9.977061271667 0.000978 0.000978 0.999999
33.046539306641 -20.660551071167 9.977061271667 0.000978 0.000978 0.999999
91.176490783691 -21.722316741943 9.977059364319 0.000978 0.000978 0.999999
23.923408508301 -18.462497711182 9.977065086365 0.000978 0.000978 0.999999
-35.800933837891 -17.671035766602 9.977066040039 0.000978 0.000978 0.999999
108.353385925293 -23.872894287109 9.977055549622 0.000978 0.000978 0.999999
48.098285675049 -18.076602935791 9.977065086365 0.000978 0.000978 0.999999
69.620590209961 -20.455413818359 9.977061271667 0.000978 0.000978 0.999999
53.785854339600 -20.008365631104 9.977062225342 0.000978 0.000978 0.999999
34.020477294922 -19.874536514282 9.977063179016 0.000978 0.000978 0.999999
-41.712631225586 -18.587120056152 9.977064132690 0.000978 0.000978 0.999999
52.649143218994 -18.692905426025 9.977064132690 0.000978 0.000978 0.999999
29.203239440918 -19.526670455933 9.977063179016 0.000978 0.000978 0.999999
47.069675445557 -17.958410263062 9.977066040039 0.000978 0.000978 0.999999
51.068904876709 -18.653730392456 9.977064132690 0.000978 0.000978 0.999999
66.798522949219 -22.245269775391 9.977058410645 0.000978 0.000978 0.999999
71.546348571777 -20.686248779297 9.977061271667 0.000978 0.000978 0.999999
54.790195465088 -17.621904373169 9.977066040039 0.000978 0.000978 0.999999
-5.799102783203 -19.242862701416 9.977064132690 0.000978 0.000978 0.999999
-61.651962280273 -17.965982437134 9.977066040039 0.000978 0.000978 0.999999
119.248558044434 -23.168464660645 9.977056503296 0.000978 0.000978 0.999999
127.773895263672 -24.163602828979 9.977054595947 0.000978 0.000978 0.999999
55.029884338379 -20.129888534546 9.977062225342 0.000978 0.000978 0.999999
105.073295593262 -22.078176498413 9.977058410645 0.000978 0.000978 0.999999
65.145484924316 -21.192415237427 9.977060317993 0.000978 0.000978 0.999999
80.015625000000 -22.520460128784 9.977057456970 0.000978 0.000978 0.999999
-25.549041748047 -19.219045639038 9.977063179016 0.000978 0.000978 0.999999
75.070579528809 -20.591394424438 9.977061271667 0.000978 0.000978 0.999999
97.490898132324 -21.963512420654 9.977058410645 0.000978 0.000978 0.999999
-53.503837585449 -17.515666961670 9.977066993713 0.000978 0.000978 0.999999
36.773475646973 -17.534898757935 9.977066993713 0.000978 0.000978 0.999999
46.830375671387 -20.438831329346 9.977061271667 0.000978 0.000978 0.999999
9.047859191895 -18.337818145752 9.977065086365 0.000978 0.000978 0.999999
13.040878295898 -17.967182159424 9.977066040039 0.000978 0.000978 0.999999
26.733558654785 -19.271028518677 9.977063179016 0.000978 0.000978 0.999999
76.410224914551 -20.201917648315 9.977061271667 0.000978 0.000978 0.999999
39.485397338867 -17.970439910889 9.977066040039 0.000978 0.000978 0.999999
73.783927917480 -18.872859954834 9.977065086365 0.000978 0.000978 0.999999
69.200317382813 -20.249477386475 9.977062225342 0.000978 0.000978 0.999999
102.106079101563 -20.995239257813 9.977060317993 0.000978 0.000978 0.999999
104.607864379883 -22.258838653564 9.977058410645 0.000978 0.000978 0.999999
-7.928405761719 -18.096687316895 9.977065086365 0.000978 0.000978 0.999999
12.422576904297 -18.449325561523 9.977065086365 0.000978 0.000978 0.999999
59.857154846191 -19.635362625122 9.977062225342 0.000978 0.000978 0.999999
41.603767395020 -20.700052261353 9.977061271667 0.000978 0.000978 0.999999
-1.057708740234 -19.624485015869 9.977063179016 0.000978 0.000978 0.999999
-62.236328125000 -17.347005844116 9.977066993713 0.000978 0.000978 0.999999
80.593444824219 -22.422975540161 9.977057456970 0.000978 0.000978 0.999999
5.815063476563 -20.195667266846 9.977061271667 0.000978 0.000978 0.999999
33.738578796387 -19.051601409912 9.977064132690 0.000978 0.000978 0.999999
-15.153717041016 -19.011915206909 9.977063179016 0.000978 0.000978 0.999999
97.835960388184 -22.571437835693 9.977057456970 0.000978 0.000978 0.999999
30.207283020020 -18.776445388794 9.977064132690 0.000978 0.000978 0.999999
16.396026611328 -18.667766571045 9.977064132690 0.000978 0.000978 0.999999
21.831565856934 -18.642120361328 9.977065086365 0.000978 0.000978 0.999999
-25.642333984375 -17.405704498291 9.977066993713 0.000978 0.000978 0.999999
25.761772155762 -19.862239837646 9.977062225342 0.000978 0.000978 0.999999
76.175506591797 -20.649463653564 9.977060317993 0.000978 0.000978 0.999999
87.382919311523 -18.460775375366 9.977065086365 0.000978 0.000978 0.999999
33.279708862305 -20.027105331421 9.977062225342 0.000978 0.000978 0.999999
42.900962829590 -19.839210510254 9.977062225342 0.000978 0.000978 0.999999
30.077163696289 -18.276702880859 9.977065086365 0.000978 0.000978 0.999999
89.699378967285 -20.168924331665 9.977062225342 0.000978 0.000978 0.999999
97.670204162598 -20.904008865356 9.977061271667 0.000978 0.000978 0.999999
121.756973266602 -23.462331771851 9.977055549622 0.000978 0.000978 0.999999
63.228294372559 -20.035673141479 9.977062225342 0.000978 0.000978 0.999999
40.837783813477 -18.504291534424 9.977065086365 0.000978 0.000978 0.999999
42.811241149902 -21.449068069458 9.977059364319 0.000978 0.000978 0.999999
40.804008483887 -20.644529342651 9.977061271667 0.000978 0.000978 0.999999
-47.035217285156 -17.674320220947 9.977066040039 0.000978 0.000978 0.999999
-7.360054016113 -17.676799774170 9.977066040039 0.000978 0.000978 0.999999
-12.695060729980 -17.500047683716 9.977066040039 0.000978 0.000978 0.999999
97.345878601074 -22.384510040283 9.977058410645 0.000978 0.000978 0.999999
37.161537170410 -18.984277725220 9.977064132690 0.000978 0.000978 0.999999
102.430870056152 -22.403980255127 9.977057456970 0.000978 0.000978 0.999999
52.945571899414 -21.469387054443 9.977059364319 0.000978 0.000978 0.999999
49.914562225342 -19.484973907471 9.977063179016 0.000978 0.000978 0.999999
20.441543579102 -19.979331970215 9.977062225342 0.000978 0.000978 0.999999
44.391593933105 -21.543458938599 9.977059364319 0.000978 0.000978 0.999999
118.258705139160 -23.092582702637 9.977056503296 0.000978 0.000978 0.999999
83.181335449219 -22.978969573975 9.977056503296 0.000978 0.000978 0.999999
129.174591064453 -24.112525939941 9.977054595947 0.000978 0.000978 0.999999
102.318130493164 3.554574012756 9.977141380310 0.000978 0.000978 0.999999
102.987258911133 4.053712844849 9.977143287659 0.000978 0.000978 0.999999
87.336547851563 -6.426870346069 9.977099418640 0.000978 0.000978 0.999999
-81.770896911621 -11.646214485168 9.977080345154 0.000978 0.000978 0.999999
-117.331130981445 12.711439132690 9.977179527283 0.000978 0.000978 0.999999
-127.183204650879 19.685600280762 9.977208137512 0.000978 0.000978 0.999999
-84.341354370117 -10.249916076660 9.977086067200 0.000978 0.000978 0.999999
-96.043983459473 -1.811051964760 9.977120399475 0.000978 0.000978 0.999999
-85.275070190430 -9.980747222900 9.977087974548 0.000978 0.000978 0.999999
111.795944213867 9.693115234375 9.977166175842 0.000978 0.000978 0.999999
84.746498107910 -8.447504043579 9.977091789246 0.000978 0.000978 0.999999
82.626922607422 -10.031730651855 9.977084159851 0.000978 0.000978 0.999999
80.683837890625 -11.161342620850 9.977080345154 0.000978 0.000978 0.999999
88.889427185059 -6.397659301758 9.977100372314 0.000978 0.000978 0.999999
123.632919311523 17.407882690430 9.977197647095 0.000978 0.000978 0.999999
83.134704589844 -10.392358779907 9.977084159851 0.000978 0.000978 0.999999
112.580787658691 9.935762405396 9.977168083191 0.000978 0.000978 0.999999
120.225128173828 14.975308418274 9.977189064026 0.000978 0.000978 0.999999
105.171806335449 4.457481384277 9.977146148682 0.000978 0.000978 0.999999
84.690597534180 -10.016844749451 9.977087020874 0.000978 0.000978 0.999999
84.903167724609 -9.924038887024 9.977087974548 0.000978 0.000978 0.999999
101.978820800781 1.852062225342 9.977135658264 0.000978 0.000978 0.999999
127.054138183594 19.591217041016 9.977208137512 0.000978 0.000978 0.999999
115.925010681152 11.855404853821 9.977175712585 0.000978 0.000978 0.999999
102.459510803223 1.605882644653 9.977136611938 0.000978 0.000978 0.999999
94.054000854492 -4.477525711060 9.977112770081 0.000978 0.000978 0.999999
95.705841064453 -3.305234909058 9.977117538452 0.000978 0.000978 0.999999
91.555953979492 -5.949326515198 9.977105140686 0.000978 0.000978 0.999999
86.060684204102 -9.654307365417 9.977090835571 0.000978 0.000978 0.999999
87.084243774414 -8.765579223633 9.977093696594 0.000978 0.000978 0.999999
117.130119323730 -13.883598327637 9.977086067200 0.000978 0.000978 0.999999
122.587615966797 -7.236104965210 9.977111816406 0.000978 0.000978 0.999999
113.005897521973 -4.181368827820 9.977119445801 0.000978 0.000978 0.999999
133.023208618164 -9.089540481567 9.977108955383 0.000978 0.000978 0.999999
125.875083923340 -12.696142196655 9.977092742920 0.000978 0.000978 0.999999
132.147796630859 -10.302312850952 9.977103233337 0.000978 0.000978 0.999999
124.513313293457 -16.596561431885 9.977079391479 0.000978 0.000978 0.999999
119.264137268066 13.528716087341 9.977184295654 0.000978 0.000978 0.999999
134.095703125000 -3.000133514404 9.977129936218 0.000978 0.000978 0.999999
114.774009704590 -17.946971893311 9.977071762085 0.000978 0.000978 0.999999
101.049346923828 -6.966896533966 9.977106094360 0.000978 0.000978 0.999999
112.862388610840 -3.769638061523 9.977120399475 0.000978 0.000978 0.999999
114.946029663086 7.518015384674 9.977162361145 0.000978 0.000978 0.999999
110.024139404297 0.143467903137 9.977133750916 0.000978 0.000978 0.999999
96.398117065430 -10.727499961853 9.977091789246 0.000978 0.000978 0.999999
102.024948120117 -16.557001113892 9.977072715759 0.000978 0.000978 0.999999
104.451065063477 -4.767963886261 9.977114677429 0.000978 0.000978 0.999999
112.669380187988 -13.855991363525 9.977086067200 0.000978 0.000978 0.999999
120.493026733398 12.196675300598 9.977179527283 0.000978 0.000978 0.999999
127.643898010254 14.780006408691 9.977190971375 0.000978 0.000978 0.999999
131.737625122070 -22.453428268433 9.977061271667 0.000978 0.000978 0.999999
109.303398132324 -1.806930541992 9.977127075195 0.000978 0.000978 0.999999
127.588150024414 5.695615768433 9.977159500122 0.000978 0.000978 0.999999
126.460624694824 4.773935317993 9.977154731750 0.000978 0.000978 0.999999
132.613449096680 -23.172241210938 9.977059364319 0.000978 0.000978 0.999999
107.617691040039 2.466345071793 9.977140426636 0.000978 0.000978 0.999999
103.933837890625 -17.282564163208 9.977069854736 0.000978 0.000978 0.999999
130.272384643555 -12.431161880493 9.977096557617 0.000978 0.000978 0.999999
111.824371337891 -7.168648719788 9.977108955383 0.000978 0.000978 0.999999
130.986740112305 -12.028980255127 9.977097511292 0.000978 0.000978 0.999999
123.644096374512 13.192438125610 9.977184295654 0.000978 0.000978 0.999999
122.126976013184 -7.121849060059 9.977111816406 0.000978 0.000978 0.999999
126.807106018066 6.352042198181 9.977160453796 0.000978 0.000978 0.999999
109.158210754395 3.079274654388 9.977144241333 0.000978 0.000978 0.999999
128.722045898438 19.561735153198 9.977208137512 0.000978 0.000978 0.999999
119.745605468750 1.517136573792 9.977141380310 0.000978 0.000978 0.999999
110.536300659180 -9.497398376465 9.977099418640 0.000978 0.000978 0.999999
123.052932739258 -8.828983306885 9.977106094360 0.000978 0.000978 0.999999
109.263038635254 -3.055735588074 9.977122306824 0.000978 0.000978 0.999999
133.804992675781 -10.317646026611 9.977104187012 0.000978 0.000978 0.999999
114.555458068848 -8.662532806396 9.977104187012 0.000978 0.000978 0.999999
96.783813476563 -14.006616592407 9.977080345154 0.000978 0.000978 0.999999
114.189018249512 1.084428787231 9.977138519287 0.000978 0.000978 0.999999
132.829483032227 0.438077926636 9.977141380310 0.000978 0.000978 0.999999
101.117858886719 0.326444000006 9.977131843567 0.000978 0.000978 0.999999
128.804748535156 8.472889900208 9.977169036865 0.000978 0.000978 0.999999
92.583297729492 -10.824279785156 9.977089881897 0.000978 0.000978 0.999999
130.670883178711 8.122390747070 9.977169036865 0.000978 0.000978 0.999999
93.396430969238 -7.458732604980 9.977102279663 0.000978 0.000978 0.999999
125.605850219727 7.143686294556 9.977164268494 0.000978 0.000978 0.999999
108.812011718750 -9.650234222412 9.977098464966 0.000978 0.000978 0.999999
125.034164428711 7.248072624207 9.977163314819 0.000978 0.000978 0.999999
115.409263610840 -1.198984146118 9.977130889893 0.000978 0.000978 0.999999
133.295822143555 -21.506467819214 9.977065086365 0.000978 0.000978 0.999999
125.026313781738 -7.006139755249 9.977113723755 0.000978 0.000978 0.999999
105.274139404297 -14.963613510132 9.977078437805 0.000978 0.000978 0.999999
117.715827941895 10.526254653931 9.977172851563 0.000978 0.000978 0.999999
106.550994873047 -12.173500061035 9.977088928223 0.000978 0.000978 0.999999
130.864959716797 -20.931915283203 9.977066993713 0.000978 0.000978 0.999999
122.014625549316 3.907985687256 9.977150917053 0.000978 0.000978 0.999999
129.394134521484 10.372080802917 9.977175712585 0.000978 0.000978 0.999999
114.239074707031 -0.472072601318 9.977132797241 0.000978 0.000978 0.999999
102.561630249023 -10.651426315308 9.977093696594 0.000978 0.000978 0.999999
131.539794921875 17.951730728149 9.977204322815 0.000978 0.000978 0.999999
127.527366638184 -1.044931411743 9.977134704590 0.000978 0.000978 0.999999
105.692031860352 -9.659586906433 9.977098464966 0.000978 0.000978 0.999999
106.387458801270 4.133553981781 9.977147102356 0.000978 0.000978 0.999999
115.584129333496 -14.143883705139 9.977085113525 0.000978 0.000978 0.999999
113.181816101074 -5.380573272705 9.977115631104 0.000978 0.000978 0.999999
118.024215698242 -8.127862930298 9.977107048035 0.000978 0.000978 0.999999
100.298606872559 -13.614547729492 9.977082252502 0.000978 0.000978 0.999999
121.768951416016 7.134845733643 9.977162361145 0.000978 0.000978 0.999999
115.958076477051 -3.008967399597 9.977125167847 0.000978 0.000978 0.999999
119.185081481934 4.717077255249 9.977152824402 0.000978 0.000978 0.999999
114.891639709473 5.343423843384 9.977153778076 0.000978 0.000978 0.999999
117.743026733398 11.286891937256 9.977175712585 0.000978 0.000978 0.999999
130.132781982422 20.808450698853 9.977212905884 0.000978 0.000978 0.999999
110.159416198730 -8.941492080688 9.977101325989 0.000978 0.000978 0.999999
96.867233276367 -12.783181190491 9.977084159851 0.000978 0.000978 0.999999
132.678619384766 0.225597381592 9.977141380310 0.000978 0.000978 0.999999
126.057846069336 -4.886722564697 9.977121353149 0.000978 0.000978 0.999999
122.077766418457 10.988023757935 9.977175712585 0.000978 0.000978 0.999999
89.525665283203 -7.826346874237 9.977099418640 0.000978 0.000978 0.999999
134.499801635742 22.699718475342 9.977220535278 0.000978 0.000978 0.999999
128.578948974609 4.167909622192 9.977154731750 0.000978 0.000978 0.999999
91.802001953125 -11.757649421692 9.977086067200 0.000978 0.000978 0.999999
103.270904541016 -6.967966079712 9.977106094360 0.000978 0.000978 0.999999
103.042884826660 -5.890656948090 9.977110862732 0.000978 0.000978 0.999999
126.576797485352 14.863920211792 9.977190971375 0.000978 0.000978 0.999999
95.556198120117 -4.866263389587 9.977111816406 0.000978 0.000978 0.999999
122.203727722168 4.277482032776 9.977151870728 0.000978 0.000978 0.999999
128.193862915039 17.242282867432 9.977199554443 0.000978 0.000978 0.999999
124.671737670898 17.487665176392 9.977199554443 0.000978 0.000978 0.999999
101.192443847656 -9.789119720459 9.977095603943 0.000978 0.000978 0.999999
98.429115295410 -5.907590866089 9.977108955383 0.000978 0.000978 0.999999
103.244102478027 -5.513941764832 9.977111816406 0.000978 0.000978 0.999999
117.740844726563 -5.037242889404 9.977118492126 0.000978 0.000978 0.999999
107.035911560059 -5.745525360107 9.977112770081 0.000978 0.000978 0.999999
100.184020996094 -16.711320877075 9.977070808411 0.000978 0.000978 0.999999
132.213806152344 -8.745738983154 9.977109909058 0.000978 0.000978 0.999999
114.654853820801 4.772483825684 9.977151870728 0.000978 0.000978 0.999999
116.664100646973 8.601236343384 9.977166175842 0.000978 0.000978 0.999999
114.794136047363 -18.280475616455 9.977069854736 0.000978 0.000978 0.999999
107.129623413086 0.963052988052 9.977135658264 0.000978 0.000978 0.999999
93.972351074219 -6.397842884064 9.977105140686 0.000978 0.000978 0.999999
116.113769531250 -18.888351440430 9.977068901062 0.000978 0.000978 0.999999
96.866348266602 -11.273542404175 9.977088928223 0.000978 0.000978 0.999999
123.423522949219 0.329191207886 9.977138519287 0.000978 0.000978 0.999999
83.219421386719 -12.555327415466 9.977080345154 0.000978 0.000978 0.999999
128.982330322266 -16.702421188354 9.977080345154 0.000978 0.000978 0.999999
122.092628479004 -21.587835311890 9.977061271667 0.000978 0.000978 0.999999
123.019966125488 7.340048789978 9.977163314819 0.000978 0.000978 0.999999
91.431037902832 -9.914009094238 9.977092742920 0.000978 0.000978 0.999999
105.176490783691 -14.767959594727 9.977079391479 0.000978 0.000978 0.999999
96.672782897949 -15.600313186646 9.977073669434 0.000978 0.000978 0.999999
89.081680297852 -13.293025970459 9.977080345154 0.000978 0.000978 0.999999
117.084121704102 -17.807792663574 9.977072715759 0.000978 0.000978 0.999999
114.938385009766 -10.350267410278 9.977098464966 0.000978 0.000978 0.999999
134.722229003906 -10.876649856567 9.977102279663 0.000978 0.000978 0.999999
120.253463745117 10.312761306763 9.977173805237 0.000978 0.000978 0.999999
118.923942565918 -1.074797630310 9.977132797241 0.000978 0.000978 0.999999
109.206932067871 -8.051012992859 9.977104187012 0.000978 0.000978 0.999999
120.051231384277 -2.161328315735 9.977128982544 0.000978 0.000978 0.999999
113.558776855469 -4.333478927612 9.977118492126 0.000978 0.000978 0.999999
111.768234252930 -16.822395324707 9.977074623108 0.000978 0.000978 0.999999
122.889259338379 -20.974302291870 9.977063179016 0.000978 0.000978 0.999999
121.421150207520 -19.288871765137 9.977068901062 0.000978 0.000978 0.999999
107.902832031250 -1.483354568481 9.977127075195 0.000978 0.000978 0.999999
123.635604858398 -0.815521240234 9.977134704590 0.000978 0.000978 0.999999
109.179977416992 1.730785369873 9.977139472961 0.000978 0.000978 0.999999
134.886932373047 -10.021753311157 9.977106094360 0.000978 0.000978 0.999999
113.884262084961 -11.129772186279 9.977094650269 0.000978 0.000978 0.999999
113.096908569336 -9.768723487854 9.977100372314 0.000978 0.000978 0.999999
134.324752807617 15.173441886902 9.977194786072 0.000978 0.000978 0.999999
119.105361938477 -8.221289634705 9.977107048035 0.000978 0.000978 0.999999
119.315582275391 -11.349718093872 9.977096557617 0.000978 0.000978 0.999999
110.751457214355 -9.475601196289 9.977100372314 0.000978 0.000978 0.999999
96.044792175293 -13.769062995911 9.977080345154 0.000978 0.000978 0.999999
128.236251831055 -14.472646713257 9.977087974548 0.000978 0.000978 0.999999
97.341857910156 -13.600106239319 9.977081298828 0.000978 0.000978 0.999999
108.488906860352 -12.018650054932 9.977090835571 0.000978 0.000978 0.999999
108.322387695313 2.055021286011 9.977140426636 0.000978 0.000978 0.999999
133.325378417969 -10.807094573975 9.977102279663 0.000978 0.000978 0.999999
113.598960876465 4.978578567505 9.977151870728 0.000978 0.000978 0.999999
115.815826416016 -10.679743766785 9.977097511292 0.000978 0.000978 0.999999
123.439414978027 -21.165681838989 9.977063179016 0.000978 0.000978 0.999999
86.378921508789 -13.542784690857 9.977077484131 0.000978 0.000978 0.999999
100.457702636719 -0.669052183628 9.977128028870 0.000978 0.000978 0.999999
134.527145385742 -1.963788986206 9.977134704590 0.000978 0.000978 0.999999
94.057434082031 -6.914281845093 9.977104187012 0.000978 0.000978 0.999999
107.354873657227 -4.071223258972 9.977118492126 0.000978 0.000978 0.999999
126.931198120117 16.485151290894 9.977197647095 0.000978 0.000978 0.999999
124.790344238281 -13.413122177124 9.977090835571 0.000978 0.000978 0.999999
120.716201782227 10.840146064758 9.977174758911 0.000978 0.000978 0.999999
108.256248474121 -11.529739379883 9.977091789246 0.000978 0.000978 0.999999
120.053153991699 -16.421977996826 9.977078437805 0.000978 0.000978 0.999999
100.787368774414 -4.869982719421 9.977113723755 0.000978 0.000978 0.999999
98.008346557617 -10.777194023132 9.977090835571 0.000978 0.000978 0.999999
112.807899475098 -15.712774276733 9.977078437805 0.000978 0.000978 0.999999
132.823043823242 9.808117866516 9.977174758911 0.000978 0.000978 0.999999
97.712799072266 -3.622625112534 9.977117538452 0.000978 0.000978 0.999999
116.398880004883 -10.302874565125 9.977099418640 0.000978 0.000978 0.999999
108.250686645508 -13.985832214355 9.977083206177 0.000978 0.000978 0.999999
128.424606323242 -13.123220443726 9.977092742920 0.000978 0.000978 0.999999
118.385803222656 12.141852378845 9.977178573608 0.000978 0.000978 0.999999
125.648521423340 10.713994979858 9.977176666260 0.000978 0.000978 0.999999
119.107917785645 -3.792450904846 9.977122306824 0.000978 0.000978 0.999999
114.896530151367 0.105925559998 9.977134704590 0.000978 0.000978 0.999999
125.910194396973 -18.537540435791 9.977073669434 0.000978 0.000978 0.999999
97.341094970703 -5.025338649750 9.977110862732 0.000978 0.000978 0.999999
118.277709960938 -18.590152740479 9.977070808411 0.000978 0.000978 0.999999
125.163558959961 12.434753417969 9.977181434631 0.000978 0.000978 0.999999
121.818275451660 -7.746168136597 9.977109909058 0.000978 0.000978 0.999999
121.765609741211 7.508271217346 9.977163314819 0.000978 0.000978 0.999999
125.320541381836 6.976324081421 9.977163314819 0.000978 0.000978 0.999999
105.484298706055 -14.915927886963 9.977079391479 0.000978 0.000978 0.999999
132.494216918945 14.797661781311 9.977191925049 0.000978 0.000978 0.999999
123.897888183594 -18.533620834351 9.977072715759 0.000978 0.000978 0.999999
129.629135131836 4.639219284058 9.977155685425 0.000978 0.000978 0.999999
89.525405883789 -13.629522323608 9.977078437805 0.000978 0.000978 0.999999
122.367904663086 -0.750362396240 9.977134704590 0.000978 0.000978 0.999999
117.163192749023 -7.051550865173 9.977110862732 0.000978 0.000978 0.999999
109.423286437988 -6.759943008423 9.977109909058 0.000978 0.000978 0.999999
112.088073730469 -3.311109542847 9.977122306824 0.000978 0.000978 0.999999
132.774642944336 -5.783977508545 9.977119445801 0.000978 0.000978 0.999999
91.285224914551 -14.081712722778 9.977077484131 0.000978 0.000978 0.999999
121.399360656738 -21.098829269409 9.977062225342 0.000978 0.000978 0.999999
127.655914306641 -14.777725219727 9.977087020874 0.000978 0.000978 0.999999
113.659683227539 -10.721810340881 9.977096557617 0.000978 0.000978 0.999999
90.100494384766 -11.564666748047 9.977087020874 0.000978 0.000978 0.999999
106.501068115234 -8.612106323242 9.977101325989 0.000978 0.000978 0.999999
127.352424621582 -15.505527496338 9.977084159851 0.000978 0.000978 0.999999
124.101760864258 -1.639011383057 9.977131843567 0.000978 0.000978 0.999999
133.235229492188 -17.485601425171 9.977079391479 0.000978 0.000978 0.999999
125.395584106445 7.496549606323 9.977164268494 0.000978 0.000978 0.999999
125.336853027344 -2.667732238770 9.977128982544 0.000978 0.000978 0.999999
131.748764038086 -9.218999862671 9.977108001709 0.000978 0.000978 0.999999
104.563674926758 -10.402686119080 9.977094650269 0.000978 0.000978 0.999999
128.818954467773 -1.360134124756 9.977133750916 0.000978 0.000978 0.999999
126.111732482910 8.960069656372 9.977169990540 0.000978 0.000978 0.999999
91.082458496094 -13.545188903809 9.977080345154 0.000978 0.000978 0.999999
134.762145996094 -19.652696609497 9.977071762085 0.000978 0.000978 0.999999
112.813552856445 -1.586760520935 9.977128982544 0.000978 0.000978 0.999999
101.307777404785 -16.344837188721 9.977072715759 0.000978 0.000978 0.999999
117.733024597168 -3.502111434937 9.977123260498 0.000978 0.000978 0.999999
100.044586181641 -3.312507152557 9.977118492126 0.000978 0.000978 0.999999
113.477157592773 -15.388978004456 9.977080345154 0.000978 0.000978 0.999999
115.311370849609 -6.287865638733 9.977112770081 0.000978 0.000978 0.999999
125.503135681152 9.946187019348 9.977172851563 0.000978 0.000978 0.999999
128.591781616211 17.937110900879 9.977202415466 0.000978 0.000978 0.999999
131.559295654297 4.708835601807 9.977157592773 0.000978 0.000978 0.999999
120.048065185547 -0.039738655090 9.977136611938 0.000978 0.000978 0.999999
127.252632141113 17.943798065186 9.977202415466 0.000978 0.000978 0.999999
131.313507080078 12.289326667786 9.977183341980 0.000978 0.000978 0.999999
92.269378662109 -10.102300643921 9.977091789246 0.000978 0.000978 0.999999
118.514244079590 -3.582532882690 9.977123260498 0.000978 0.000978 0.999999
115.848815917969 -14.258672714233 9.977085113525 0.000978 0.000978 0.999999
93.888061523438 -7.196231842041 9.977103233337 0.000978 0.000978 0.999999
123.981277465820 -20.059358596802 9.977066993713 0.000978 0.000978 0.999999
131.767074584961 16.504497528076 9.977198600769 0.000978 0.000978 0.999999
119.585960388184 -15.109188079834 9.977083206177 0.000978 0.000978 0.999999
111.143371582031 -9.647514343262 9.977099418640 0.000978 0.000978 0.999999
118.723632812500 7.380586147308 9.977162361145 0.000978 0.000978 0.999999
123.643157958984 2.903624534607 9.977148056030 0.000978 0.000978 0.999999
127.120628356934 -21.356382369995 9.977063179016 0.000978 0.000978 0.999999
118.025978088379 -11.974273681641 9.977093696594 0.000978 0.000978 0.999999
122.534996032715 -15.494707107544 9.977082252502 0.000978 0.000978 0.999999
106.983505249023 -13.541603088379 9.977085113525 0.000978 0.000978 0.999999
100.580261230469 -3.884379863739 9.977116584778 0.000978 0.000978 0.999999
127.253700256348 18.813209533691 9.977205276489 0.000978 0.000978 0.999999
91.920837402344 -11.821787834167 9.977086067200 0.000978 0.000978 0.999999
118.394187927246 3.125320434570 9.977147102356 0.000978 0.000978 0.999999
128.254592895508 -22.212581634521 9.977061271667 0.000978 0.000978 0.999999
105.178367614746 -3.678499698639 9.977118492126 0.000978 0.000978 0.999999
103.243278503418 -8.931235313416 9.977099418640 0.000978 0.000978 0.999999
108.208175659180 -5.078644752502 9.977114677429 0.000978 0.000978 0.999999
105.079391479492 -4.729122161865 9.977115631104 0.000978 0.000978 0.999999
108.568908691406 -15.431240081787 9.977078437805 0.000978 0.000978 0.999999
116.411148071289 -11.997112274170 9.977092742920 0.000978 0.000978 0.999999
116.403388977051 -5.151829719543 9.977117538452 0.000978 0.000978 0.999999
91.552413940430 -9.389863014221 9.977094650269 0.000978 0.000978 0.999999
132.115661621094 -3.120969772339 9.977128982544 0.000978 0.000978 0.999999
109.494155883789 -5.049086570740 9.977115631104 0.000978 0.000978 0.999999
119.578033447266 1.527842521667 9.977142333984 0.000978 0.000978 0.999999
133.654312133789 9.528101921082 9.977174758911 0.000978 0.000978 0.999999
108.775390625000 -13.755849838257 9.977084159851 0.000978 0.000978 0.999999
96.673599243164 -12.979538917542 9.977083206177 0.000978 0.000978 0.999999
124.132362365723 -21.145275115967 9.977063179016 0.000978 0.000978 0.999999
118.908554077148 10.209592819214 9.977171897888 0.000978 0.000978 0.999999
115.805191040039 -16.415119171143 9.977077484131 0.000978 0.000978 0.999999
98.287208557129 -6.472086429596 9.977106094360 0.000978 0.000978 0.999999
90.362350463867 -7.359626293182 9.977100372314 0.000978 0.000978 0.999999
116.394462585449 -20.057868957520 9.977065086365 0.000978 0.000978 0.999999
95.274444580078 -4.866507530212 9.977110862732 0.000978 0.000978 0.999999
122.427780151367 -12.521648406982 9.977092742920 0.000978 0.000978 0.999999
115.572036743164 -14.495493888855 9.977083206177 0.000978 0.000978 0.999999
126.104797363281 -19.326877593994 9.977069854736 0.000978 0.000978 0.999999
120.301979064941 -0.919137954712 9.977133750916 0.000978 0.000978 0.999999
107.810165405273 -10.508961677551 9.977095603943 0.000978 0.000978 0.999999
122.615188598633 16.073347091675 9.977194786072 0.000978 0.000978 0.999999
130.064285278320 -11.728603363037 9.977098464966 0.000978 0.000978 0.999999
119.813003540039 -5.170662879944 9.977118492126 0.000978 0.000978 0.999999
121.540214538574 -17.692813873291 9.977074623108 0.000978 0.000978 0.999999
115.444122314453 5.935659885406 9.977155685425 0.000978 0.000978 0.999999
124.999252319336 -6.621337890625 9.977114677429 0.000978 0.000978 0.999999
95.169235229492 -15.239341735840 9.977074623108 0.000978 0.000978 0.999999
108.522979736328 -14.255891799927 9.977082252502 0.000978 0.000978 0.999999
134.501724243164 -1.044542312622 9.977136611938 0.000978 0.000978 0.999999
122.932739257813 7.141201019287 9.977163314819 0.000978 0.000978 0.999999
125.957023620605 9.807955741882 9.977172851563 0.000978 0.000978 0.999999
105.490371704102 1.144118309021 9.977135658264 0.000978 0.000978 0.999999
103.725708007813 -9.976385116577 9.977096557617 0.000978 0.000978 0.999999
99.184631347656 -2.493227243423 9.977121353149 0.000978 0.000978 0.999999
107.396942138672 -8.153258323669 9.977104187012 0.000978 0.000978 0.999999
109.973144531250 1.532651424408 9.977139472961 0.000978 0.000978 0.999999
126.674423217773 10.561799049377 9.977175712585 0.000978 0.000978 0.999999
116.800064086914 -1.720920562744 9.977128982544 0.000978 0.000978 0.999999
115.354095458984 7.122446060181 9.977160453796 0.000978 0.000978 0.999999
100.429931640625 -11.537187576294 9.977089881897 0.000978 0.000978 0.999999
124.068161010742 -2.600631713867 9.977128982544 0.000978 0.000978 0.999999
125.881156921387 17.230148315430 9.977199554443 0.000978 0.000978 0.999999
104.383712768555 1.993030548096 9.977138519287 0.000978 0.000978 0.999999
96.951271057129 -10.708762168884 9.977090835571 0.000978 0.000978 0.999999
112.823089599609 -9.977239608765 9.977098464966 0.000978 0.000978 0.999999
131.082565307617 -15.670280456543 9.977084159851 0.000978 0.000978 0.999999
108.259338378906 -0.117389678955 9.977131843567 0.000978 0.000978 0.999999
119.619308471680 11.484574317932 9.977177619934 0.000978 0.000978 0.999999
98.723907470703 -14.229756355286 9.977080345154 0.000978 0.000978 0.999999
132.146072387695 -23.815111160278 9.977055549622 0.000978 0.000978 0.999999
130.828979492188 14.021347045898 9.977189064026 0.000978 0.000978 0.999999
106.005416870117 -10.448688507080 9.977095603943 0.000978 0.000978 0.999999
99.285964965820 -5.360422611237 9.977110862732 0.000978 0.000978 0.999999
134.486068725586 -8.714195251465 9.977109909058 0.000978 0.000978 0.999999
90.510910034180 -12.105072975159 9.977084159851 0.000978 0.000978 0.999999
