//X Y Z Nx Ny Nz
616
-31.117839813232 160.431213378906 6.916196823120 0.000978 0.999999 0.000978
-29.508815765381 160.431213378906 4.061470508575 0.000978 0.999999 0.000978
-45.371570587158 160.431213378906 -10.159029006958 0.000978 0.999999 0.000978
-40.049629211426 160.431213378906 -0.180138856173 0.000978 0.999999 0.000978
-37.215610504150 160.431213378906 -1.627726078033 0.000978 0.999999 0.000978
-37.326385498047 160.431213378906 -2.001675844193 0.000978 0.999999 0.000978
-39.688064575195 160.431213378906 -8.936323165894 0.000978 0.999999 0.000978
-38.964187622070 160.431213378906 -1.248356699944 0.000978 0.999999 0.000978
-39.313491821289 160.431213378906 -1.144850373268 0.000978 0.999999 0.000978
-37.041522979736 160.431213378906 -2.809844017029 0.000978 0.999999 0.000978
-42.026908874512 160.431213378906 -6.876024246216 0.000978 0.999999 0.000978
-38.048358917236 160.431213378906 -5.552604198456 0.000978 0.999999 0.000978
-22.916986465454 160.431213378906 -1.399332523346 0.000978 0.999999 0.000978
-21.077236175537 160.431213378906 4.023342132568 0.000978 0.999999 0.000978
-24.457012176514 160.431213378906 -5.536150932312 0.000978 0.999999 0.000978
-22.413908004761 160.431213378906 -7.487576961517 0.000978 0.999999 0.000978
-22.041435241699 160.431213378906 3.594189405441 0.000978 0.999999 0.000978
-21.243118286133 160.431213378906 -3.359661102295 0.000978 0.999999 0.000978
-22.753334045410 160.431213378906 -1.913732528687 0.000978 0.999999 0.000978
-20.511613845825 160.431213378906 1.199429988861 0.000978 0.999999 0.000978
-19.597616195679 160.431213378906 4.285550117493 0.000978 0.999999 0.000978
-31.688285827637 160.431213378906 -9.436569213867 0.000978 0.999999 0.000978
-25.296562194824 160.431213378906 -0.759343206882 0.000978 0.999999 0.000978
-26.212940216064 160.431213378906 -8.597988128662 0.000978 0.999999 0.000978
-34.849601745605 160.431213378906 -9.689823150635 0.000978 0.999999 0.000978
-29.583690643311 160.431213378906 -0.245931833982 0.000978 0.999999 0.000978
-32.064727783203 160.431213378906 -5.411040306091 0.000978 0.999999 0.000978
-26.009504318237 160.431213378906 0.913045525551 0.000978 0.999999 0.000978
-28.276910781860 160.431213378906 -8.335501670837 0.000978 0.999999 0.000978
-25.811792373657 160.431213378906 -10.802684783936 0.000978 0.999999 0.000978
-26.328796386719 160.431213378906 2.043882846832 0.000978 0.999999 0.000978
-3.908311367035 160.431213378906 5.379395484924 0.000978 0.999999 0.000978
-8.229561805725 160.431213378906 1.676049232483 0.000978 0.999999 0.000978
-12.176558494568 160.431213378906 6.230504035950 0.000978 0.999999 0.000978
-3.892289400101 160.431213378906 4.156522274017 0.000978 0.999999 0.000978
-6.615929126740 160.431213378906 2.629163742065 0.000978 0.999999 0.000978
-4.312590599060 160.431213378906 2.028480052948 0.000978 0.999999 0.000978
-8.563295364380 160.431213378906 0.946154594421 0.000978 0.999999 0.000978
-11.222255706787 160.431213378906 0.658505439758 0.000978 0.999999 0.000978
-10.850515365601 160.431213378906 2.552647113800 0.000978 0.999999 0.000978
-13.640905380249 160.431213378906 -5.826980590820 0.000978 0.999999 0.000978
-17.102317810059 160.431213378906 -4.218360900879 0.000978 0.999999 0.000978
-16.167339324951 160.431213378906 -6.372289180756 0.000978 0.999999 0.000978
-14.779084205627 160.431213378906 -3.068883180618 0.000978 0.999999 0.000978
-13.743360519409 160.431213378906 -8.759229660034 0.000978 0.999999 0.000978
-16.159332275391 160.431213378906 -2.744256973267 0.000978 0.999999 0.000978
-16.333295822144 160.431213378906 -7.359509468079 0.000978 0.999999 0.000978
-23.234359741211 160.431213378906 -11.006051063538 0.000978 0.999999 0.000978
-14.400938987732 160.431213378906 -9.498033523560 0.000978 0.999999 0.000978
-0.279230594635 160.431213378906 3.779850959778 0.000978 0.999999 0.000978
-4.589046001434 160.431213378906 -6.199025630951 0.000978 0.999999 0.000978
-1.877353429794 160.431213378906 3.424858331680 0.000978 0.999999 0.000978
-2.723117589951 160.431213378906 2.840013742447 0.000978 0.999999 0.000978
-2.291067600250 160.431213378906 -7.201211452484 0.000978 0.999999 0.000978
-2.972327232361 160.431213378906 -3.351362943649 0.000978 0.999999 0.000978
-0.481457471848 160.431213378906 4.085975646973 0.000978 0.999999 0.000978
-0.633919715881 160.431213378906 -11.077786445618 0.000978 0.999999 0.000978
-0.303937792778 160.431213378906 5.434216499329 0.000978 0.999999 0.000978
-9.137123107910 160.431213378906 -10.982331275940 0.000978 0.999999 0.000978
11.371574401855 160.431213378906 -1.120335578918 0.000978 0.999999 0.000978
6.442221641541 160.431213378906 0.830676555634 0.000978 0.999999 0.000978
5.817751407623 160.431213378906 6.260922431946 0.000978 0.999999 0.000978
9.234903335571 160.431213378906 2.644218444824 0.000978 0.999999 0.000978
9.218280792236 160.431213378906 -3.566307544708 0.000978 0.999999 0.000978
4.543678760529 160.431213378906 0.360090732574 0.000978 0.999999 0.000978
11.012106895447 160.431213378906 -0.628799915314 0.000978 0.999999 0.000978
3.841009140015 160.431213378906 6.249360084534 0.000978 0.999999 0.000978
11.578186035156 160.431213378906 -9.049136161804 0.000978 0.999999 0.000978
1.868792533875 160.431213378906 -2.889090776443 0.000978 0.999999 0.000978
4.750411510468 160.431213378906 -4.889283180237 0.000978 0.999999 0.000978
1.357084512711 160.431213378906 -10.716046333313 0.000978 0.999999 0.000978
5.135549068451 160.431213378906 -1.261798024178 0.000978 0.999999 0.000978
2.618606805801 160.431213378906 -4.478321552277 0.000978 0.999999 0.000978
7.049658775330 160.431213378906 -6.746887207031 0.000978 0.999999 0.000978
2.316101551056 160.431213378906 -3.445861577988 0.000978 0.999999 0.000978
1.729719996452 160.431213378906 1.182329535484 0.000978 0.999999 0.000978
3.613965749741 160.431213378906 -1.072244167328 0.000978 0.999999 0.000978
4.705953598022 160.431213378906 -6.683440208435 0.000978 0.999999 0.000978
18.861114501953 160.431213378906 -4.361941814423 0.000978 0.999999 0.000978
17.565126419067 160.431213378906 -3.643225908279 0.000978 0.999999 0.000978
14.488192558289 160.431213378906 2.501536607742 0.000978 0.999999 0.000978
13.637809753418 160.431213378906 -7.757243633270 0.000978 0.999999 0.000978
18.603212356567 160.431213378906 -8.666082382202 0.000978 0.999999 0.000978
20.144081115723 160.431213378906 -7.595305442810 0.000978 0.999999 0.000978
13.451957702637 160.431213378906 -1.276946067810 0.000978 0.999999 0.000978
18.177053451538 160.431213378906 -9.662549018860 0.000978 0.999999 0.000978
18.897033691406 160.431213378906 -8.030656814575 0.000978 0.999999 0.000978
23.878353118896 160.431213378906 -6.182333469391 0.000978 0.999999 0.000978
16.334217071533 160.431213378906 5.649415016174 0.000978 0.999999 0.000978
22.487848281860 160.431213378906 -1.976661205292 0.000978 0.999999 0.000978
18.067012786865 160.431213378906 1.700526237488 0.000978 0.999999 0.000978
19.959049224854 160.431213378906 0.039321422577 0.000978 0.999999 0.000978
19.572341918945 160.431213378906 5.742227554321 0.000978 0.999999 0.000978
20.433332443237 160.431213378906 -4.857529640198 0.000978 0.999999 0.000978
24.328855514526 160.431213378906 -5.287747383118 0.000978 0.999999 0.000978
21.977077484131 160.431213378906 -5.924551963806 0.000978 0.999999 0.000978
24.319414138794 160.431213378906 -5.124260425568 0.000978 0.999999 0.000978
25.271331787109 160.431213378906 -0.115758262575 0.000978 0.999999 0.000978
27.977539062500 160.431213378906 -6.415235519409 0.000978 0.999999 0.000978
28.624801635742 160.431213378906 -2.181287288666 0.000978 0.999999 0.000978
24.912117004395 160.431213378906 -9.756767272949 0.000978 0.999999 0.000978
27.541891098022 160.431213378906 -4.722674369812 0.000978 0.999999 0.000978
27.062545776367 160.431213378906 -5.428156852722 0.000978 0.999999 0.000978
30.384881973267 160.431213378906 -8.534236907959 0.000978 0.999999 0.000978
24.587396621704 160.431213378906 6.506878376007 0.000978 0.999999 0.000978
28.067676544189 160.431213378906 -3.145165443420 0.000978 0.999999 0.000978
33.139518737793 160.431213378906 -1.504428863525 0.000978 0.999999 0.000978
26.619106292725 160.431213378906 4.527721881866 0.000978 0.999999 0.000978
33.596759796143 160.431213378906 5.346638679504 0.000978 0.999999 0.000978
34.910583496094 160.431213378906 4.893403053284 0.000978 0.999999 0.000978
34.248348236084 160.431213378906 5.278242111206 0.000978 0.999999 0.000978
34.283084869385 160.431213378906 3.016320705414 0.000978 0.999999 0.000978
35.067638397217 160.431213378906 3.325645208359 0.000978 0.999999 0.000978
28.448360443115 160.431213378906 3.734747648239 0.000978 0.999999 0.000978
36.156108856201 160.431213378906 -5.547714710236 0.000978 0.999999 0.000978
44.406764984131 160.431213378906 -1.477339744568 0.000978 0.999999 0.000978
46.987796783447 160.431213378906 5.920267105103 0.000978 0.999999 0.000978
46.434627532959 160.431213378906 1.261294841766 0.000978 0.999999 0.000978
41.747577667236 160.431213378906 0.911235809326 0.000978 0.999999 0.000978
47.300407409668 160.431213378906 4.323400497437 0.000978 0.999999 0.000978
47.613853454590 160.431213378906 7.199651718140 0.000978 0.999999 0.000978
45.564006805420 160.431213378906 5.293889999390 0.000978 0.999999 0.000978
41.159210205078 160.431213378906 5.041585922241 0.000978 0.999999 0.000978
41.735107421875 160.431213378906 3.031393527985 0.000978 0.999999 0.000978
43.265792846680 160.431213378906 1.174435615540 0.000978 0.999999 0.000978
41.634864807129 160.431213378906 -2.880706310272 0.000978 0.999999 0.000978
38.063934326172 160.431213378906 -10.314246177673 0.000978 0.999999 0.000978
44.695575714111 160.431213378906 -7.117435932159 0.000978 0.999999 0.000978
45.165424346924 160.431213378906 -4.927512645721 0.000978 0.999999 0.000978
46.372016906738 160.431213378906 -8.101664543152 0.000978 0.999999 0.000978
37.688243865967 160.431213378906 -6.252840518951 0.000978 0.999999 0.000978
38.113559722900 160.431213378906 -0.460354149342 0.000978 0.999999 0.000978
38.895725250244 160.431213378906 -8.012042999268 0.000978 0.999999 0.000978
38.443706512451 160.431213378906 -1.206462144852 0.000978 0.999999 0.000978
56.131576538086 160.431213378906 -7.243498325348 0.000978 0.999999 0.000978
57.254806518555 160.431213378906 -6.493341445923 0.000978 0.999999 0.000978
54.236686706543 160.431213378906 -3.695575714111 0.000978 0.999999 0.000978
55.026275634766 160.431213378906 -4.853118419647 0.000978 0.999999 0.000978
54.896789550781 160.431213378906 -9.696242332458 0.000978 0.999999 0.000978
50.872127532959 160.431213378906 1.922253012657 0.000978 0.999999 0.000978
51.181636810303 160.431213378906 -10.285882949829 0.000978 0.999999 0.000978
54.484580993652 160.431213378906 -0.200663387775 0.000978 0.999999 0.000978
51.744522094727 160.431213378906 3.711480379105 0.000978 0.999999 0.000978
51.598289489746 160.431213378906 0.657595992088 0.000978 0.999999 0.000978
59.682544708252 160.431213378906 -3.887411117554 0.000978 0.999999 0.000978
59.319374084473 160.431213378906 6.879924774170 0.000978 0.999999 0.000978
57.978702545166 160.431213378906 -4.417958736420 0.000978 0.999999 0.000978
60.061637878418 160.431213378906 -6.523368358612 0.000978 0.999999 0.000978
53.937965393066 160.431213378906 4.097307205200 0.000978 0.999999 0.000978
58.172740936279 160.431213378906 -4.187319278717 0.000978 0.999999 0.000978
55.462184906006 160.431213378906 5.492537498474 0.000978 0.999999 0.000978
59.647487640381 160.431213378906 -6.391187191010 0.000978 0.999999 0.000978
60.756862640381 160.431213378906 1.656786918640 0.000978 0.999999 0.000978
61.312034606934 160.431213378906 -7.433949470520 0.000978 0.999999 0.000978
64.344772338867 160.431213378906 6.120361328125 0.000978 0.999999 0.000978
67.244682312012 160.431213378906 1.945405006409 0.000978 0.999999 0.000978
66.393745422363 160.431213378906 6.671639919281 0.000978 0.999999 0.000978
64.098922729492 160.431213378906 6.020558834076 0.000978 0.999999 0.000978
71.018760681152 160.431213378906 -1.920848846436 0.000978 0.999999 0.000978
71.453414916992 160.431213378906 2.479149818420 0.000978 0.999999 0.000978
67.098693847656 160.431213378906 6.021263122559 0.000978 0.999999 0.000978
65.620223999023 160.431213378906 6.018893241882 0.000978 0.999999 0.000978
72.780502319336 160.431213378906 5.185653209686 0.000978 0.999999 0.000978
65.151535034180 160.431213378906 1.378252267838 0.000978 0.999999 0.000978
61.874904632568 160.431213378906 -2.003085136414 0.000978 0.999999 0.000978
68.604827880859 160.431213378906 -2.485283374786 0.000978 0.999999 0.000978
63.956649780273 160.431213378906 3.976532459259 0.000978 0.999999 0.000978
71.638626098633 160.431213378906 -6.589373588562 0.000978 0.999999 0.000978
66.519065856934 160.431213378906 -0.672382593155 0.000978 0.999999 0.000978
62.723205566406 160.431213378906 1.720649003983 0.000978 0.999999 0.000978
68.889900207520 160.431213378906 -2.953664302826 0.000978 0.999999 0.000978
63.386878967285 160.431213378906 -6.403998851776 0.000978 0.999999 0.000978
61.969898223877 160.431213378906 -2.902150392532 0.000978 0.999999 0.000978
85.578651428223 160.431213378906 7.241109848022 0.000978 0.999999 0.000978
80.266738891602 160.431213378906 4.896282672882 0.000978 0.999999 0.000978
79.685791015625 160.431213378906 8.493053436279 0.000978 0.999999 0.000978
80.411567687988 160.431213378906 4.712342739105 0.000978 0.999999 0.000978
81.294731140137 160.431213378906 -1.136919975281 0.000978 0.999999 0.000978
78.686126708984 160.431213378906 2.537151336670 0.000978 0.999999 0.000978
85.972557067871 160.431213378906 9.008813858032 0.000978 0.999999 0.000978
77.113929748535 160.431213378906 6.245665550232 0.000978 0.999999 0.000978
82.062210083008 160.431213378906 0.933712005615 0.000978 0.999999 0.000978
85.487083435059 160.431213378906 -5.244615554810 0.000978 0.999999 0.000978
77.443336486816 160.431213378906 -6.038636684418 0.000978 0.999999 0.000978
77.661170959473 160.431213378906 0.108673065901 0.000978 0.999999 0.000978
79.627525329590 160.431213378906 -4.358633995056 0.000978 0.999999 0.000978
82.416648864746 160.431213378906 -6.986251354218 0.000978 0.999999 0.000978
78.341041564941 160.431213378906 -2.748908519745 0.000978 0.999999 0.000978
73.712875366211 160.431213378906 8.090637207031 0.000978 0.999999 0.000978
76.620933532715 160.431213378906 2.553285121918 0.000978 0.999999 0.000978
75.018913269043 160.431213378906 -6.784316539764 0.000978 0.999999 0.000978
74.578628540039 160.431213378906 -3.976244926453 0.000978 0.999999 0.000978
77.458656311035 160.431213378906 -4.565819740295 0.000978 0.999999 0.000978
87.058761596680 160.431213378906 8.842126846313 0.000978 0.999999 0.000978
93.638420104980 160.431213378906 6.029820442200 0.000978 0.999999 0.000978
97.547180175781 160.431213378906 1.634041786194 0.000978 0.999999 0.000978
92.343429565430 160.431213378906 3.921488761902 0.000978 0.999999 0.000978
94.567283630371 160.431213378906 6.065705776215 0.000978 0.999999 0.000978
97.864364624023 160.431213378906 4.877993106842 0.000978 0.999999 0.000978
95.604057312012 160.431213378906 6.052073001862 0.000978 0.999999 0.000978
95.349273681641 160.431213378906 4.683907508850 0.000978 0.999999 0.000978
97.647048950195 160.431213378906 -0.726070404053 0.000978 0.999999 0.000978
93.197883605957 160.431213378906 9.358780860901 0.000978 0.999999 0.000978
-135.000000000000 138.850524902344 4.940354347229 -0.999999 0.000978 0.000978
-135.000000000000 117.136390686035 10.808748245239 -0.999999 0.000978 0.000978
-135.000000000000 112.605377197266 12.265640258789 -0.999999 0.000978 0.000978
-135.000000000000 116.267166137695 8.131412506104 -0.999999 0.000978 0.000978
-135.000000000000 114.648391723633 8.313971519470 -0.999999 0.000978 0.000978
-135.000000000000 115.643768310547 10.531510353088 -0.999999 0.000978 0.000978
-135.000000000000 144.707580566406 3.352297544479 -0.999999 0.000978 0.000978
-135.000000000000 126.523231506348 3.841929435730 -0.999999 0.000978 0.000978
-135.000000000000 119.358459472656 9.049392700195 -0.999999 0.000978 0.000978
-135.000000000000 117.763221740723 -0.550094604492 -0.999999 0.000978 0.000978
-135.000000000000 143.720397949219 2.365027427673 -0.999999 0.000978 0.000978
-135.000000000000 156.851211547852 10.096299171448 -0.999999 0.000978 0.000978
-135.000000000000 157.532470703125 11.057078361511 -0.999999 0.000978 0.000978
-135.000000000000 149.506210327148 10.238171577454 -0.999999 0.000978 0.000978
-135.000000000000 149.381698608398 9.870223999023 -0.999999 0.000978 0.000978
-135.000000000000 143.579116821289 2.227398395538 -0.999999 0.000978 0.000978
-135.000000000000 148.757537841797 0.576513350010 -0.999999 0.000978 0.000978
-135.000000000000 157.602478027344 -3.544764518738 -0.999999 0.000978 0.000978
-135.000000000000 141.487503051758 1.390816211700 -0.999999 0.000978 0.000978
-135.000000000000 157.053314208984 -3.274607658386 -0.999999 0.000978 0.000978
-135.000000000000 157.911560058594 -3.495964527130 -0.999999 0.000978 0.000978
-135.000000000000 155.195983886719 -1.513224005699 -0.999999 0.000978 0.000978
-135.000000000000 155.784362792969 -0.803238868713 -0.999999 0.000978 0.000978
-135.000000000000 157.244384765625 7.313518047333 -0.999999 0.000978 0.000978
-135.000000000000 157.050231933594 2.938702344894 -0.999999 0.000978 0.000978
-135.000000000000 158.323043823242 3.235576868057 -0.999999 0.000978 0.000978
-135.000000000000 114.696075439453 1.768012166023 -0.999999 0.000978 0.000978
-135.000000000000 155.155014038086 2.642725467682 -0.999999 0.000978 0.000978
-135.000000000000 155.815155029297 3.425293684006 -0.999999 0.000978 0.000978
-135.000000000000 121.980949401855 -2.472890615463 -0.999999 0.000978 0.000978
-135.000000000000 130.509902954102 0.538544356823 -0.999999 0.000978 0.000978
-135.000000000000 125.344284057617 -3.588149070740 -0.999999 0.000978 0.000978
-135.000000000000 139.002410888672 -2.032232999802 -0.999999 0.000978 0.000978
-135.000000000000 148.073303222656 -2.167808055878 -0.999999 0.000978 0.000978
-135.000000000000 123.765838623047 -3.666515827179 -0.999999 0.000978 0.000978
-135.000000000000 148.764556884766 -3.393942832947 -0.999999 0.000978 0.000978
-135.000000000000 136.844879150391 -0.465570449829 -0.999999 0.000978 0.000978
-135.000000000000 127.916618347168 -4.051294803619 -0.999999 0.000978 0.000978
-135.000000000000 141.734390258789 -0.616096794605 -0.999999 0.000978 0.000978
-135.000000000000 129.324111938477 -3.003549098969 -0.999999 0.000978 0.000978
-135.000000000000 131.735321044922 -3.912156105042 -0.999999 0.000978 0.000978
-135.000000000000 143.053314208984 -0.214977651834 -0.999999 0.000978 0.000978
-135.000000000000 139.252166748047 -3.927988529205 -0.999999 0.000978 0.000978
-135.000000000000 135.899780273438 -1.678854465485 -0.999999 0.000978 0.000978
-135.000000000000 127.487220764160 -4.835776329041 -0.999999 0.000978 0.000978
-135.000000000000 135.405990600586 -3.596457004547 -0.999999 0.000978 0.000978
-135.000000000000 112.605888366699 0.784248352051 -0.999999 0.000978 0.000978
-135.000000000000 111.135086059570 -3.476119995117 -0.999999 0.000978 0.000978
-135.000000000000 111.651451110840 10.443317413330 -0.999999 0.000978 0.000978
-135.000000000000 113.244911193848 6.140808105469 -0.999999 0.000978 0.000978
-135.000000000000 125.741050720215 9.913375854492 -0.999999 0.000978 0.000978
-135.000000000000 145.913208007813 11.193273544312 -0.999999 0.000978 0.000978
-135.000000000000 131.634841918945 9.273559570313 -0.999999 0.000978 0.000978
-135.000000000000 139.728942871094 8.734101295471 -0.999999 0.000978 0.000978
-135.000000000000 154.332717895508 12.521023750305 -0.999999 0.000978 0.000978
-135.000000000000 132.415283203125 9.438539505005 -0.999999 0.000978 0.000978
-135.000000000000 141.923904418945 12.580024719238 -0.999999 0.000978 0.000978
-135.000000000000 126.383728027344 10.538757324219 -0.999999 0.000978 0.000978
-135.000000000000 130.495666503906 9.796564102173 -0.999999 0.000978 0.000978
-135.000000000000 145.035537719727 10.074434280396 -0.999999 0.000978 0.000978
-135.000000000000 137.871429443359 8.094563484192 -0.999999 0.000978 0.000978
-135.000000000000 121.013999938965 12.752049446106 -0.999999 0.000978 0.000978
-135.000000000000 146.033828735352 7.765702724457 -0.999999 0.000978 0.000978
-135.000000000000 122.256744384766 0.229414105415 -0.999999 0.000978 0.000978
-135.000000000000 121.371482849121 -0.646458387375 -0.999999 0.000978 0.000978
-135.000000000000 118.132881164551 -1.186337232590 -0.999999 0.000978 0.000978
-135.000000000000 139.633407592773 7.582900047302 -0.999999 0.000978 0.000978
-135.000000000000 146.420730590820 6.917263031006 -0.999999 0.000978 0.000978
-135.000000000000 131.008529663086 6.475578784943 -0.999999 0.000978 0.000978
-135.000000000000 144.190612792969 7.999544143677 -0.999999 0.000978 0.000978
-62.944095611572 127.454711914063 8.154219627380 0.043880 0.001020 0.999036
-62.816745758057 152.834091186523 8.148590087891 0.039643 0.001016 0.999213
-61.742843627930 143.020339965820 8.100327491760 0.039643 0.001016 0.999213
-64.320960998535 151.553359985352 8.216137886047 0.041673 0.001016 0.999131
-62.332824707031 144.996871948242 8.126830101013 0.041673 0.001016 0.999131
-62.255706787109 119.815452575684 8.123277664185 0.045917 0.001020 0.998945
-65.391784667969 155.601928710938 8.264242172241 0.041673 0.001016 0.999131
-66.063812255859 155.350433349609 8.294422149658 0.041673 0.001016 0.999131
-64.208869934082 135.322006225586 8.211047172546 0.043791 0.001018 0.999040
-68.593414306641 142.465805053711 8.407979011536 0.045917 0.001020 0.998945
-67.819992065430 138.188522338867 8.373229980469 0.045917 0.001020 0.998945
-63.978534698486 124.775505065918 8.200666427612 0.045917 0.001020 0.998945
-70.430068969727 158.099044799805 8.490516662598 0.043880 0.001020 0.999036
-65.158424377441 148.545257568359 8.253737449646 0.041758 0.001018 0.999127
-68.472595214844 146.394638061523 8.402566909790 0.043880 0.001020 0.999036
-63.439777374268 130.739105224609 8.176492691040 0.043880 0.001020 0.999036
-70.795059204102 151.143951416016 8.506882667542 0.045917 0.001020 0.998945
-65.098831176758 141.635116577148 8.251037597656 0.043791 0.001018 0.999040
-67.957252502441 154.638900756836 8.379451751709 0.043791 0.001018 0.999040
-63.649600982666 132.715652465820 8.185922622681 0.043791 0.001018 0.999040
-69.114051818848 148.056961059570 8.431379318237 0.043880 0.001020 0.999036
-64.038330078125 141.188995361328 8.203409194946 0.041758 0.001018 0.999127
-67.063392639160 158.218444824219 8.339322090149 0.041758 0.001018 0.999127
-71.810249328613 156.351470947266 8.552492141724 0.045917 0.001020 0.998945
-65.094581604004 131.223770141602 8.250810623169 0.045917 0.001020 0.998945
-64.188217163086 144.045761108398 8.210150718689 0.041758 0.001018 0.999127
-63.487300872803 152.152008056641 8.178701400757 0.039643 0.001016 0.999213
-80.843544006348 127.297393798828 9.016451835632 0.054502 0.001028 0.998513
-85.352622985840 130.781417846680 9.255844116211 0.056785 0.001032 0.998386
-85.885894775391 144.977020263672 9.284204483032 0.054614 0.001030 0.998507
-85.110137939453 131.126846313477 9.242972373962 0.056785 0.001032 0.998386
-77.053291320801 115.290077209473 8.815190315247 0.054502 0.001028 0.998513
-83.294692993164 134.752288818359 9.146605491638 0.054614 0.001030 0.998507
-79.997909545898 118.495712280273 8.971527099609 0.054614 0.001030 0.998507
-82.842933654785 115.718864440918 9.122555732727 0.058843 0.001032 0.998267
-83.428657531738 119.051826477051 9.153663635254 0.056785 0.001032 0.998386
-80.261573791504 123.551925659180 8.985542297363 0.054614 0.001030 0.998507
-79.404762268066 113.069099426270 8.940019607544 0.056668 0.001030 0.998393
-77.052597045898 119.033851623535 8.815166473389 0.052451 0.001028 0.998623
-85.274986267090 125.924263000488 9.251706123352 0.058843 0.001032 0.998267
-85.182601928711 140.114364624023 9.246850967407 0.054614 0.001030 0.998507
-85.974884033203 118.565429687500 9.288836479187 0.058965 0.001034 0.998260
-82.825134277344 138.857559204102 9.121691703796 0.054502 0.001028 0.998513
-81.236564636230 140.950134277344 9.037364006042 0.052343 0.001026 0.998629
-78.146095275879 114.808982849121 8.873204231262 0.054614 0.001030 0.998507
-85.911865234375 119.232803344727 9.285492897034 0.058965 0.001034 0.998260
-82.940193176270 125.747619628906 9.127754211426 0.056668 0.001030 0.998393
-80.681510925293 134.409881591797 9.007874488831 0.052451 0.001028 0.998623
-82.555717468262 131.247177124023 9.107361793518 0.054614 0.001030 0.998507
-81.479591369629 139.917419433594 9.050262451172 0.052451 0.001028 0.998623
-81.717742919922 112.694686889648 9.062810897827 0.056785 0.001032 0.998386
-84.056716918945 117.225761413574 9.186999320984 0.058843 0.001032 0.998267
-81.218437194824 116.676666259766 9.036316871643 0.056668 0.001030 0.998393
-78.671073913574 141.055191040039 8.901165962219 0.050296 0.001026 0.998734
-76.003440856934 141.197341918945 8.759545326233 0.050193 0.001024 0.998739
-83.760154724121 157.241348266602 9.171394348145 0.052343 0.001026 0.998629
-74.250358581543 125.987388610840 8.666423797607 0.050296 0.001026 0.998734
-83.385887145996 159.615890502930 9.151534080505 0.050296 0.001026 0.998734
-77.287040710449 144.834487915039 8.827703475952 0.050193 0.001024 0.998739
-77.279533386230 134.406555175781 8.827267646790 0.050296 0.001026 0.998734
-81.118225097656 157.374771118164 9.031138420105 0.050193 0.001024 0.998739
-83.996574401855 155.233673095703 9.183938980103 0.052343 0.001026 0.998629
-82.252532958984 152.459442138672 9.091340065002 0.052343 0.001026 0.998629
-73.724906921387 118.486282348633 8.638501167297 0.050296 0.001026 0.998734
-76.934509277344 125.576683044434 8.808919906616 0.052343 0.001026 0.998629
-74.249000549316 113.099838256836 8.666306495667 0.052343 0.001026 0.998629
-83.456092834473 158.509231567383 9.155257225037 0.050296 0.001026 0.998734
-77.443344116211 126.623123168945 8.835937500000 0.052343 0.001026 0.998629
-80.990150451660 140.386627197266 9.024280548096 0.052343 0.001026 0.998629
-73.841186523438 129.956222534180 8.644714355469 0.050193 0.001024 0.998739
-75.325904846191 117.682548522949 8.723493576050 0.052343 0.001026 0.998629
-75.394622802734 132.760742187500 8.727194786072 0.050296 0.001026 0.998734
-77.425712585449 143.186264038086 8.835058212280 0.050193 0.001024 0.998739
-80.003166198730 141.542846679688 8.971886634827 0.052343 0.001026 0.998629
-78.519660949707 145.066162109375 8.893141746521 0.050296 0.001026 0.998734
-74.415901184082 140.238922119141 8.675262451172 0.048149 0.001024 0.998840
-78.209648132324 150.213806152344 8.876701354980 0.050193 0.001024 0.998739
-73.757125854492 147.178497314453 8.640313148499 0.048051 0.001022 0.998844
-76.311225891113 143.966461181641 8.775895118713 0.050193 0.001024 0.998739
-97.367393493652 148.405456542969 9.986996650696 0.063217 0.001036 0.997999
-96.294326782227 110.845008850098 9.921112060547 0.067764 0.001043 0.997701
-93.204483032227 120.777999877930 9.731815338135 0.065416 0.001038 0.997858
-89.043869018555 114.629730224609 9.476852416992 0.063217 0.001036 0.997999
-91.625167846680 113.503143310547 9.635016441345 0.065416 0.001038 0.997858
-95.399818420410 127.730880737305 9.866359710693 0.065416 0.001038 0.997858
-94.238006591797 141.172607421875 9.795217514038 0.061152 0.001036 0.998128
-96.727798461914 131.863357543945 9.947747230530 0.065416 0.001038 0.997858
-96.678382873535 132.448669433594 9.944721221924 0.065416 0.001038 0.997858
-95.457733154297 121.718360900879 9.869887351990 0.065552 0.001041 0.997849
-96.489128112793 135.515106201172 9.933135032654 0.063348 0.001038 0.997991
-96.485000610352 134.840103149414 9.932880401611 0.063348 0.001038 0.997991
-95.962333679199 113.145195007324 9.900775909424 0.067764 0.001043 0.997701
-94.834754943848 114.137687683105 9.831687927246 0.067624 0.001040 0.997710
-92.319458007813 114.116767883301 9.677562713623 0.065416 0.001038 0.997858
-96.284843444824 112.538337707520 9.920536041260 0.067764 0.001043 0.997701
-94.885559082031 136.355728149414 9.834878921509 0.063217 0.001036 0.997999
-92.395393371582 114.689140319824 9.682217597961 0.065416 0.001038 0.997858
-96.585609436035 148.019683837891 9.939091682434 0.061152 0.001036 0.998128
-92.260040283203 120.841712951660 9.673945426941 0.063348 0.001038 0.997991
-97.580307006836 139.461166381836 10.000011444092 0.063348 0.001038 0.997991
-90.982994079590 113.922363281250 9.595669746399 0.063348 0.001038 0.997991
-96.698226928711 137.580291748047 9.945955276489 0.063348 0.001038 0.997991
-97.379676818848 113.659652709961 9.987626075745 0.067764 0.001043 0.997701
-97.046218872070 117.597938537598 9.967207908630 0.067764 0.001043 0.997701
-95.480117797852 132.741928100586 9.871298789978 0.063348 0.001038 0.997991
-90.039077758789 119.303565979004 9.537850379944 0.063217 0.001036 0.997999
-88.062164306641 156.975097656250 9.416845321655 0.054502 0.001028 0.998513
-94.149131774902 158.079727172852 9.789830207825 0.058843 0.001032 0.998267
-91.692710876465 145.381164550781 9.639268875122 0.058965 0.001034 0.998260
-86.431358337402 142.442016601563 9.316866874695 0.056668 0.001030 0.998393
-88.338432312012 151.793090820313 9.433755874634 0.054614 0.001030 0.998507
-86.758552551270 149.938812255859 9.336942672729 0.054614 0.001030 0.998507
-90.929473876953 153.007675170898 9.592527389526 0.056785 0.001032 0.998386
-86.072097778320 112.924034118652 9.294750213623 0.061026 0.001034 0.998136
-86.534507751465 123.336074829102 9.323121070862 0.058965 0.001034 0.998260
-86.850425720215 128.908737182617 9.342498779297 0.058843 0.001032 0.998267
-93.931587219238 151.297332763672 9.776476860046 0.058965 0.001034 0.998260
-93.471343994141 159.021881103516 9.748302459717 0.058843 0.001032 0.998267
-88.607887268066 139.691955566406 9.450224876404 0.056785 0.001032 0.998386
-86.965026855469 126.052719116211 9.349510192871 0.058965 0.001034 0.998260
-87.840278625488 148.631057739258 9.403221130371 0.056668 0.001030 0.998393
-87.095367431641 156.403579711914 9.357603073120 0.054502 0.001028 0.998513
-94.915679931641 156.558746337891 9.836795806885 0.058965 0.001034 0.998260
-89.382369995117 140.336441040039 9.497684478760 0.058843 0.001032 0.998267
-89.621940612793 146.983184814453 9.512386322021 0.056785 0.001032 0.998386
-93.868743896484 150.194213867188 9.772623062134 0.058965 0.001034 0.998260
-89.464012145996 150.015899658203 9.502720832825 0.056668 0.001030 0.998393
-94.521789550781 158.081985473633 9.812665939331 0.058843 0.001032 0.998267
-88.994132995605 153.836990356445 9.473941802979 0.054614 0.001030 0.998507
-88.849754333496 147.466842651367 9.465072631836 0.056668 0.001030 0.998393
-90.924789428711 149.080642700195 9.592226982117 0.058843 0.001032 0.998267
-89.398284912109 143.323669433594 9.498669624329 0.056785 0.001032 0.998386
132.848159790039 146.947158813477 12.710875511169 -0.085581 0.001057 0.996331
128.878738403320 155.675399780273 12.369979858398 -0.085581 0.001057 0.996331
131.324844360352 143.107803344727 12.580027580261 -0.085581 0.001057 0.996331
134.993438720703 119.797218322754 12.895035743713 -0.085581 0.001057 0.996331
132.491394042969 152.260818481445 12.680253028870 -0.085581 0.001057 0.996331
131.639923095703 134.816604614258 12.607060432434 -0.085581 0.001057 0.996331
133.001785278320 146.611984252930 12.724069595337 -0.085581 0.001057 0.996331
128.144882202148 147.070480346680 12.306920051575 -0.085581 0.001057 0.996331
133.037979125977 130.075637817383 12.727120399475 -0.085581 0.001057 0.996331
130.035003662109 145.220886230469 12.469252586365 -0.085581 0.001057 0.996331
129.412796020508 147.013259887695 12.415818214417 -0.085581 0.001057 0.996331
134.190124511719 135.772003173828 12.826096534729 -0.085581 0.001057 0.996331
130.579071044922 145.937347412109 12.515984535217 -0.085581 0.001057 0.996331
127.568786621094 150.244064331055 12.257451057434 -0.085581 0.001057 0.996331
127.259895324707 151.808273315430 12.230926513672 -0.085581 0.001057 0.996331
129.911178588867 151.858703613281 12.458642005920 -0.085581 0.001057 0.996331
134.186874389648 133.845382690430 12.825811386108 -0.085581 0.001057 0.996331
131.161544799805 144.274627685547 12.566005706787 -0.085581 0.001057 0.996331
127.987792968750 153.344833374023 12.293449401855 -0.085581 0.001057 0.996331
125.394981384277 154.402954101563 12.070759773254 -0.085581 0.001057 0.996331
134.495773315430 148.149276733398 12.852392196655 -0.085581 0.001057 0.996331
134.390502929688 138.351638793945 12.843316078186 -0.085581 0.001057 0.996331
132.504135131836 126.167167663574 12.681255340576 -0.085581 0.001057 0.996331
132.356536865234 154.214538574219 12.668677330017 -0.085581 0.001057 0.996331
133.329605102539 139.490798950195 12.752201080322 -0.085581 0.001057 0.996331
131.516281127930 151.153091430664 12.596498489380 -0.085581 0.001057 0.996331
134.834243774414 129.156494140625 12.881395339966 -0.085581 0.001057 0.996331
126.771331787109 124.169204711914 12.188867568970 -0.081212 0.001055 0.996696
129.509216308594 118.026138305664 12.423998832703 -0.083307 0.001055 0.996523
129.469223022461 129.468215942383 12.420603752136 -0.085581 0.001057 0.996331
126.336585998535 140.208557128906 12.151584625244 -0.085581 0.001057 0.996331
129.916839599609 115.762641906738 12.459001541138 -0.083307 0.001055 0.996523
127.256011962891 118.954566955566 12.230477333069 -0.081212 0.001055 0.996696
133.853637695313 115.007598876953 12.797123908997 -0.085581 0.001057 0.996331
125.449348449707 120.075912475586 12.075309753418 -0.081042 0.001052 0.996710
127.450492858887 137.151931762695 12.247244834900 -0.085581 0.001057 0.996331
130.481414794922 121.286209106445 12.507511138916 -0.083483 0.001057 0.996509
123.618698120117 127.048904418945 11.918103218079 -0.081042 0.001052 0.996710
126.641273498535 138.723632812500 12.177748680115 -0.083483 0.001057 0.996509
124.416633605957 153.017089843750 11.986727714539 -0.085581 0.001057 0.996331
132.063461303711 117.081214904785 12.643374443054 -0.085581 0.001057 0.996331
133.445755004883 112.643028259277 12.762083053589 -0.085581 0.001057 0.996331
123.601173400879 122.049964904785 11.916580200195 -0.078950 0.001053 0.996878
133.080764770508 114.601135253906 12.730741500854 -0.085581 0.001057 0.996331
128.172515869141 128.547348022461 12.309227943420 -0.083483 0.001057 0.996509
125.539688110352 118.456283569336 12.083063125610 -0.081042 0.001052 0.996710
129.864028930664 112.270164489746 12.454453468323 -0.081212 0.001055 0.996696
125.673561096191 145.731094360352 12.094656944275 -0.085581 0.001057 0.996331
129.364318847656 112.900909423828 12.411536216736 -0.081212 0.001055 0.996696
124.956535339355 150.508285522461 12.033089637756 -0.085581 0.001057 0.996331
125.577079772949 140.641204833984 12.086353302002 -0.083483 0.001057 0.996509
129.548812866211 122.149505615234 12.427413940430 -0.083483 0.001057 0.996509
126.720161437988 117.389823913574 12.184448242188 -0.081042 0.001052 0.996710
-108.847595214844 114.372695922852 10.777225494385 0.074451 0.001049 0.997224
-106.602012634277 138.650970458984 10.621309280396 0.069985 0.001045 0.997548
-101.779983520508 124.323104858398 10.286271095276 0.069839 0.001042 0.997558
-104.785133361816 118.840370178223 10.495020866394 0.072214 0.001047 0.997389
-108.145889282227 136.153518676758 10.728553771973 0.072063 0.001044 0.997400
-110.367980957031 142.213348388672 10.882944107056 0.072214 0.001047 0.997389
-109.303367614746 128.242156982422 10.808937072754 0.074296 0.001046 0.997236
-105.282867431641 126.316314697266 10.529623985291 0.072063 0.001044 0.997400
-106.629142761230 111.235015869141 10.623097419739 0.074296 0.001046 0.997236
-99.997398376465 111.770568847656 10.162390708923 0.069985 0.001045 0.997548
-107.164871215820 124.879295349121 10.660362243652 0.072214 0.001047 0.997389
-105.147445678711 125.387100219727 10.520213127136 0.072063 0.001044 0.997400
-108.965103149414 135.689682006836 10.785463333130 0.072214 0.001047 0.997389
-103.598457336426 127.996528625488 10.412613868713 0.069985 0.001045 0.997548
-105.476272583008 122.882461547852 10.543047904968 0.072063 0.001044 0.997400
-105.806282043457 116.389801025391 10.565951347351 0.072214 0.001047 0.997389
-107.721603393555 141.498260498047 10.699096679688 0.069985 0.001045 0.997548
-106.094497680664 139.095535278320 10.586052894592 0.069985 0.001045 0.997548
-102.809570312500 118.197937011719 10.357775688171 0.072063 0.001044 0.997400
-108.473457336426 120.769409179688 10.751255989075 0.074296 0.001046 0.997236
-108.326850891113 133.407775878906 10.741115570068 0.072214 0.001047 0.997389
-107.743827819824 145.479263305664 10.700654983521 0.069985 0.001045 0.997548
-105.578392028809 111.072143554688 10.550100326538 0.074296 0.001046 0.997236
-108.373657226563 120.254600524902 10.744320869446 0.074296 0.001046 0.997236
-109.207908630371 143.519958496094 10.802358627319 0.072063 0.001044 0.997400
-102.439048767090 121.268241882324 10.332045555115 0.069985 0.001045 0.997548
-104.110832214355 144.176376342773 10.448266029358 0.067764 0.001043 0.997701
-108.254669189453 153.992553710938 10.736173629761 0.069839 0.001042 0.997558
-102.762565612793 160.207000732422 10.354659080505 0.063348 0.001038 0.997991
-100.590759277344 125.511795043945 10.203659057617 0.069839 0.001042 0.997558
-100.226890563965 133.958679199219 10.178411483765 0.067624 0.001040 0.997710
-104.852485656738 143.422592163086 10.499785423279 0.067764 0.001043 0.997701
-99.669616699219 128.653884887695 10.139678955078 0.067624 0.001040 0.997710
-101.934806823730 128.749114990234 10.297041893005 0.069839 0.001042 0.997558
-109.794921875000 160.265289306641 10.843196868896 0.069839 0.001042 0.997558
-100.183395385742 157.713394165039 10.175474166870 0.063217 0.001036 0.997999
-98.862785339355 128.911407470703 10.083628654480 0.067624 0.001040 0.997710
-98.729911804199 138.843750000000 10.074433326721 0.065416 0.001038 0.997858
-98.455390930176 157.553863525391 10.055428504944 0.061152 0.001036 0.998128
-101.760009765625 157.799240112305 10.285002708435 0.063348 0.001038 0.997991
-98.716087341309 116.637390136719 10.073394775391 0.069839 0.001042 0.997558
-104.493789672852 142.100769042969 10.474862098694 0.067764 0.001043 0.997701
-100.529296875000 128.705490112305 10.199400901794 0.067764 0.001043 0.997701
-101.432014465332 123.767311096191 10.262095451355 0.069839 0.001042 0.997558
-102.411582946777 150.148071289063 10.330240249634 0.065552 0.001041 0.997849
-105.619338989258 142.868835449219 10.553057670593 0.069839 0.001042 0.997558
-107.186645507813 147.983322143555 10.661956787109 0.069839 0.001042 0.997558
-103.698036193848 143.591766357422 10.419587135315 0.067764 0.001043 0.997701
-104.413993835449 146.739730834961 10.469334602356 0.067764 0.001043 0.997701
-101.643547058105 128.100006103516 10.276805877686 0.069839 0.001042 0.997558
-98.500663757324 119.384552001953 10.058438301086 0.067764 0.001043 0.997701
-104.489929199219 136.879150390625 10.474575996399 0.069839 0.001042 0.997558
-98.700355529785 132.992767333984 10.072359085083 0.065552 0.001041 0.997849
-118.653030395508 122.518493652344 11.525296211243 0.081042 0.001052 0.996710
-115.138267517090 118.767135620117 11.252277374268 0.078785 0.001050 0.996891
-118.456260681152 137.151702880859 11.510063171387 0.076696 0.001051 0.997054
-114.804466247559 112.261581420898 11.226326942444 0.078950 0.001053 0.996878
-118.154327392578 118.435119628906 11.486545562744 0.081042 0.001052 0.996710
-115.420906066895 117.955101013184 11.274228096008 0.078785 0.001050 0.996891
-122.315032958984 156.761459350586 11.809859275818 0.076696 0.001051 0.997054
-114.163391113281 120.206909179688 11.176559448242 0.076696 0.001051 0.997054
-114.486373901367 114.034957885742 11.201624870300 0.078785 0.001050 0.996891
-122.127014160156 147.929565429688 11.795223236084 0.078785 0.001050 0.996891
-121.415344238281 150.990081787109 11.739954948425 0.076696 0.001051 0.997054
-112.842185974121 113.466217041016 11.073911666870 0.076696 0.001051 0.997054
-121.505020141602 136.885726928711 11.746871948242 0.078950 0.001053 0.996878
-121.205841064453 148.966979980469 11.723675727844 0.076696 0.001051 0.997054
-112.288520812988 110.533004760742 11.030896186829 0.078785 0.001050 0.996891
-120.288208007813 120.497932434082 11.652299880981 0.081212 0.001055 0.996696
-121.662155151367 145.046417236328 11.759105682373 0.078785 0.001050 0.996891
-121.226196289063 143.066650390625 11.725235939026 0.078785 0.001050 0.996891
-116.264137268066 121.910194396973 11.339738845825 0.078785 0.001050 0.996891
-122.551498413086 111.097724914551 11.828065872192 0.085581 0.001057 0.996331
-113.043159484863 115.758010864258 11.089529991150 0.076696 0.001051 0.997054
-119.656982421875 122.986251831055 11.603279113770 0.081042 0.001052 0.996710
-120.639747619629 141.274215698242 11.679677963257 0.078785 0.001050 0.996891
-121.092742919922 113.182716369629 11.714765548706 0.083483 0.001057 0.996509
-112.004165649414 114.465461730957 11.008823394775 0.076696 0.001051 0.997054
-118.409820556641 139.598236083984 11.506464958191 0.076696 0.001051 0.997054
-119.254531860352 126.175949096680 11.572030067444 0.081042 0.001052 0.996710
119.577079772949 112.733818054199 11.597036361694 -0.074451 0.001049 0.997224
115.524108886719 111.224594116211 11.282220840454 -0.072214 0.001047 0.997389
111.779853820801 143.729965209961 10.991503715515 -0.074451 0.001049 0.997224
114.621376037598 140.676040649414 11.212204933167 -0.076536 0.001048 0.997066
115.845634460449 119.029502868652 11.307222366333 -0.074296 0.001046 0.997236
115.750885009766 116.554939270020 11.299854278564 -0.074296 0.001046 0.997236
111.077728271484 129.096313476563 10.936915397644 -0.072214 0.001047 0.997389
111.248306274414 133.064086914063 10.950177192688 -0.074296 0.001046 0.997236
111.075027465820 121.166809082031 10.936677932739 -0.072063 0.001044 0.997400
119.753890991211 120.683837890625 11.610797882080 -0.076536 0.001048 0.997066
112.643707275391 131.221176147461 11.058558464050 -0.074296 0.001046 0.997236
113.897018432617 130.445846557617 11.155904769897 -0.074451 0.001049 0.997224
112.613693237305 115.439308166504 11.056170463562 -0.072063 0.001044 0.997400
115.186119079590 136.574157714844 11.256056785583 -0.076536 0.001048 0.997066
117.178916931152 131.106643676758 11.410825729370 -0.076536 0.001048 0.997066
117.683799743652 118.534461975098 11.449998855591 -0.074451 0.001049 0.997224
111.946868896484 127.431701660156 11.004419326782 -0.072214 0.001047 0.997389
110.561653137207 155.073425292969 10.896920204163 -0.076536 0.001048 0.997066
119.526550292969 113.047485351563 11.593112945557 -0.074451 0.001049 0.997224
116.227890014648 136.532913208008 11.336975097656 -0.076536 0.001048 0.997066
112.025497436523 146.416015625000 11.010592460632 -0.074451 0.001049 0.997224
120.596130371094 110.863830566406 11.676184654236 -0.074451 0.001049 0.997224
111.245590209961 136.764877319336 10.949980735779 -0.074296 0.001046 0.997236
117.251541137695 110.586395263672 11.416395187378 -0.074296 0.001046 0.997236
115.296943664551 127.905899047852 11.264634132385 -0.074451 0.001049 0.997224
119.968971252441 116.090049743652 11.627488136292 -0.076536 0.001048 0.997066
-120.046401977539 152.640533447266 11.633630752563 0.076536 0.001048 0.997066
-115.936912536621 154.357543945313 11.314435005188 0.074296 0.001046 0.997236
-116.435607910156 148.408248901367 11.353151321411 0.074451 0.001049 0.997224
-110.987892150879 129.844894409180 10.929939270020 0.074296 0.001046 0.997236
-114.996177673340 144.467880249023 11.241330146790 0.074451 0.001049 0.997224
-110.967712402344 150.792617797852 10.928445816040 0.072063 0.001044 0.997400
-114.872123718262 131.901458740234 11.231649398804 0.076536 0.001048 0.997066
-119.404785156250 148.324584960938 11.583778381348 0.076536 0.001048 0.997066
-111.741615295410 126.566955566406 10.988472938538 0.074451 0.001049 0.997224
-112.764968872070 145.094635009766 11.068025588989 0.072214 0.001047 0.997389
-119.251159667969 153.448196411133 11.571863174438 0.076536 0.001048 0.997066
-110.934951782227 159.827133178711 10.925931930542 0.069985 0.001045 0.997548
-113.601226806641 149.768569946289 11.132996559143 0.072214 0.001047 0.997389
-112.409645080566 160.373168945313 11.040479660034 0.069985 0.001045 0.997548
-110.598510742188 153.593811035156 10.899777412415 0.069985 0.001045 0.997548
-111.139427185059 147.705230712891 10.941772460938 0.072063 0.001044 0.997400
-111.213523864746 127.260894775391 10.947455406189 0.074451 0.001049 0.997224
-112.073593139648 118.033897399902 11.014227867126 0.076536 0.001048 0.997066
-111.523910522461 146.533020019531 10.971632957458 0.072214 0.001047 0.997389
-119.107765197754 147.184722900391 11.560703277588 0.076536 0.001048 0.997066
-114.119773864746 145.324096679688 11.173259735107 0.074296 0.001046 0.997236
-114.242927551270 134.646362304688 11.182787895203 0.074451 0.001049 0.997224
-115.182975769043 132.674209594727 11.255798339844 0.076536 0.001048 0.997066
-117.598175048828 150.108001708984 11.443457603455 0.074451 0.001049 0.997224
-118.084732055664 158.484497070313 11.481279373169 0.074296 0.001046 0.997236
-114.277656555176 138.027786254883 11.185497283936 0.074451 0.001049 0.997224
120.225784301758 137.146011352539 11.647509574890 -0.078950 0.001053 0.996878
121.125656127930 143.799560546875 11.717429161072 -0.081212 0.001055 0.996696
121.041313171387 139.928039550781 11.710864067078 -0.081042 0.001052 0.996710
113.930557250977 150.811630249023 11.158581733704 -0.076696 0.001051 0.997054
111.321372985840 158.110687255859 10.955942153931 -0.076696 0.001051 0.997054
121.978279113770 124.729461669922 11.783589363098 -0.078785 0.001050 0.996891
121.365989685059 156.716186523438 11.736142158508 -0.083483 0.001057 0.996509
122.529075622559 140.571838378906 11.826427459717 -0.081212 0.001055 0.996696
122.312332153320 127.530502319336 11.809546470642 -0.078950 0.001053 0.996878
118.683975219727 151.593170166016 11.527801513672 -0.081042 0.001052 0.996710
121.593276977539 128.407028198242 11.753697395325 -0.078950 0.001053 0.996878
115.923774719238 159.844757080078 11.313434600830 -0.081042 0.001052 0.996710
121.441162109375 158.158691406250 11.741986274719 -0.083483 0.001057 0.996509
117.593902587891 146.344604492188 11.443112373352 -0.078950 0.001053 0.996878
117.687644958496 136.197402954102 11.450359344482 -0.076696 0.001051 0.997054
115.867820739746 145.741851806641 11.309038162231 -0.078785 0.001050 0.996891
116.339530944824 153.000976562500 11.345704078674 -0.078950 0.001053 0.996878
120.525161743164 126.986328125000 11.670727729797 -0.078785 0.001050 0.996891
119.937026977539 150.117202758789 11.625125885010 -0.081212 0.001055 0.996696
120.350524902344 141.768585205078 11.657215118408 -0.081042 0.001052 0.996710
116.880958557129 152.867813110352 11.387758255005 -0.078950 0.001053 0.996878
118.055763244629 151.988800048828 11.479006767273 -0.081042 0.001052 0.996710
121.888854980469 115.891395568848 11.776612281799 -0.076696 0.001051 0.997054
111.605461120605 156.254516601563 10.978000640869 -0.076536 0.001048 0.997066
120.741172790527 144.955368041992 11.687568664551 -0.081212 0.001055 0.996696
117.088653564453 150.013763427734 11.403880119324 -0.078950 0.001053 0.996878
