//X Y Z Nx Ny Nz
602
164.319213867188 444.817230224609 1.988509416580 0.000978 0.000978 0.999999
158.937240600586 438.351257324219 1.988482832909 0.000978 0.000978 0.999999
151.650619506836 391.334228515625 1.988300919533 0.000978 0.000978 0.999999
152.706939697266 370.525695800781 1.988221764565 0.000978 0.000978 0.999999
173.307098388672 519.943603515625 1.988799333572 0.000978 0.000978 0.999999
174.873260498047 512.256225585938 1.988770484924 0.000978 0.000978 0.999999
159.325805664063 422.304382324219 1.988421797752 0.000978 0.000978 0.999999
169.189453125000 519.707275390625 1.988797068596 0.000978 0.000978 0.999999
165.161819458008 462.903869628906 1.988578677177 0.000978 0.000978 0.999999
144.225692749023 347.065673828125 1.988129377365 0.000978 0.000978 0.999999
134.027526855469 261.891754150391 1.987800598145 0.000978 0.000978 0.999999
140.496292114258 313.979797363281 1.988001704216 0.000978 0.000978 0.999999
148.368698120117 366.583038330078 1.988205194473 0.000978 0.000978 0.999999
165.945190429688 486.638946533203 1.988669633865 0.000978 0.000978 0.999999
172.146362304688 501.057495117188 1.988726735115 0.000978 0.000978 0.999999
171.358627319336 516.505371093750 1.988785505295 0.000978 0.000978 0.999999
129.900482177734 244.768157958984 1.987733840942 0.000978 0.000978 0.999999
160.412429809570 459.952239990234 1.988565921783 0.000978 0.000978 0.999999
146.079818725586 357.950378417969 1.988171458244 0.000978 0.000978 0.999999
171.999694824219 537.216857910156 1.988864779472 0.000978 0.000978 0.999999
162.095245361328 441.883300781250 1.988497495651 0.000978 0.000978 0.999999
171.163253784180 532.889709472656 1.988847970963 0.000978 0.000978 0.999999
152.979705810547 387.434936523438 1.988286375999 0.000978 0.000978 0.999999
127.475280761719 219.844451904297 1.987637877464 0.000978 0.000978 0.999999
129.846893310547 238.245574951172 1.987708926201 0.000978 0.000978 0.999999
127.521514892578 228.788909912109 1.987671971321 0.000978 0.000978 0.999999
154.455947875977 408.243591308594 1.988366365433 0.000978 0.000978 0.999999
136.246612548828 291.198944091797 1.987913250923 0.000978 0.000978 0.999999
166.110534667969 468.005706787109 1.988598465919 0.000978 0.000978 0.999999
122.744369506836 190.928009033203 1.987525701523 0.000978 0.000978 0.999999
156.508605957031 414.070983886719 1.988389372826 0.000978 0.000978 0.999999
150.203643798828 367.758666992188 1.988210439682 0.000978 0.000978 0.999999
145.782226562500 345.976318359375 1.988125681877 0.000978 0.000978 0.999999
148.617584228516 377.954406738281 1.988248705864 0.000978 0.000978 0.999999
156.824188232422 404.500274658203 1.988352894783 0.000978 0.000978 0.999999
163.375610351563 447.955993652344 1.988521099091 0.000978 0.000978 0.999999
168.699478149414 493.638854980469 1.988697290421 0.000978 0.000978 0.999999
164.303543090820 470.655029296875 1.988608121872 0.000978 0.000978 0.999999
129.960021972656 235.039978027344 1.987696766853 0.000978 0.000978 0.999999
126.961212158203 215.574340820313 1.987621307373 0.000978 0.000978 0.999999
153.257675170898 376.614868164063 1.988245248795 0.000978 0.000978 0.999999
167.192764282227 512.077087402344 1.988767266273 0.000978 0.000978 0.999999
141.637954711914 300.279235839844 1.987949728966 0.000978 0.000978 0.999999
159.257049560547 422.676879882813 1.988423109055 0.000978 0.000978 0.999999
129.805999755859 229.728729248047 1.987676382065 0.000978 0.000978 0.999999
161.275344848633 429.185485839844 1.988448619843 0.000978 0.000978 0.999999
173.111267089844 508.452331542969 1.988755464554 0.000978 0.000978 0.999999
160.127731323242 439.841552734375 1.988488912582 0.000978 0.000978 0.999999
161.893676757813 467.485443115234 1.988595128059 0.000978 0.000978 0.999999
173.377700805664 512.426452636719 1.988770723343 0.000978 0.000978 0.999999
147.063232421875 364.785980224609 1.988197922707 0.000978 0.000978 0.999999
153.487747192383 384.018951416016 1.988273620605 0.000978 0.000978 0.999999
128.053955078125 222.393005371094 1.987647771835 0.000978 0.000978 0.999999
167.895645141602 516.886413574219 1.988785743713 0.000978 0.000978 0.999999
159.284729003906 441.303527832031 1.988494157791 0.000978 0.000978 0.999999
174.959594726563 513.927246093750 1.988776922226 0.000978 0.000978 0.999999
141.920104980469 327.497192382813 1.988053798676 0.000978 0.000978 0.999999
114.320510864258 131.068389892578 1.987294435501 0.000978 0.000978 0.999999
162.504852294922 443.770782470703 1.988504767418 0.000978 0.000978 0.999999
162.058517456055 426.092895507813 1.988437294960 0.000978 0.000978 0.999999
173.359497070313 493.927093505859 1.988702774048 0.000978 0.000978 0.999999
137.836654663086 275.117889404297 1.987853288651 0.000978 0.000978 0.999999
128.370407104492 56.677547454834 1.987006664276 0.000978 0.000978 0.999999
135.258880615234 68.365974426270 1.987053275108 0.000978 0.000978 0.999999
130.010559082031 52.996360778809 1.986994266510 0.000978 0.000978 0.999999
179.927062988281 536.894409179688 -28.011154174805 0.000978 0.000978 -0.999999
176.776306152344 545.422485351563 -28.011100769043 0.000978 0.000978 -0.999999
123.412895202637 45.906230926514 -28.013038635254 0.000978 0.000978 -0.999999
182.232696533203 537.014038085938 -28.011137008667 0.000978 0.000978 -0.999999
183.234649658203 536.134216308594 -28.011140823364 0.000978 0.000978 -0.999999
198.365295410156 549.425964355469 -28.011058807373 0.000978 0.000978 -0.999999
183.062133789063 548.897338867188 -28.011074066162 0.000978 0.000978 -0.999999
187.107070922852 544.207702636719 -28.011095046997 0.000978 0.000978 -0.999999
188.921722412109 544.178039550781 -28.011095046997 0.000978 0.000978 -0.999999
175.231704711914 551.914428710938 -28.011062622070 0.000978 0.000978 -0.999999
183.465270996094 538.361877441406 -28.011129379272 0.000978 0.000978 -0.999999
190.929962158203 545.666564941406 -28.011085510254 0.000978 0.000978 -0.999999
181.660156250000 543.773864746094 -28.011102676392 0.000978 0.000978 -0.999999
177.663360595703 550.623840332031 -28.011068344116 0.000978 0.000978 -0.999999
175.731231689453 552.832458496094 -28.011058807373 0.000978 0.000978 -0.999999
179.127685546875 549.816955566406 -28.011072158813 0.000978 0.000978 -0.999999
165.467422485352 403.515197753906 -28.011680603027 0.000978 0.000978 -0.999999
157.742065429688 338.426391601563 -28.011924743652 0.000978 0.000978 -0.999999
176.633453369141 489.813537597656 -28.011352539063 0.000978 0.000978 -0.999999
194.579406738281 539.274414062500 -28.011125564575 0.000978 0.000978 -0.999999
151.113983154297 281.281127929688 -28.012142181396 0.000978 0.000978 -0.999999
152.110305786133 291.384521484375 -28.012104034424 0.000978 0.000978 -0.999999
153.813995361328 305.544708251953 -28.012048721313 0.000978 0.000978 -0.999999
158.948989868164 344.515502929688 -28.011901855469 0.000978 0.000978 -0.999999
174.065750122070 465.674194335938 -28.011442184448 0.000978 0.000978 -0.999999
169.552459716797 427.492065429688 -28.011585235596 0.000978 0.000978 -0.999999
173.577621459961 459.325012207031 -28.011465072632 0.000978 0.000978 -0.999999
171.669403076172 443.462829589844 -28.011526107788 0.000978 0.000978 -0.999999
143.573791503906 226.388381958008 -28.012348175049 0.000978 0.000978 -0.999999
160.692901611328 366.071594238281 -28.011819839478 0.000978 0.000978 -0.999999
162.632568359375 380.732910156250 -28.011766433716 0.000978 0.000978 -0.999999
171.171752929688 452.053924560547 -28.011497497559 0.000978 0.000978 -0.999999
166.044326782227 411.491485595703 -28.011650085449 0.000978 0.000978 -0.999999
154.989364624023 321.915679931641 -28.011987686157 0.000978 0.000978 -0.999999
175.423522949219 466.886352539063 -28.011434555054 0.000978 0.000978 -0.999999
153.076110839844 286.980163574219 -28.012121200562 0.000978 0.000978 -0.999999
166.368728637695 397.319946289063 -28.011701583862 0.000978 0.000978 -0.999999
177.321945190430 485.787231445313 -28.011363983154 0.000978 0.000978 -0.999999
157.217864990234 321.294982910156 -28.011989593506 0.000978 0.000978 -0.999999
150.798751831055 275.977325439453 -28.012163162231 0.000978 0.000978 -0.999999
149.720458984375 263.166229248047 -28.012212753296 0.000978 0.000978 -0.999999
163.840621948242 377.387542724609 -28.011777877808 0.000978 0.000978 -0.999999
161.704635620117 362.129516601563 -28.011835098267 0.000978 0.000978 -0.999999
151.832702636719 282.724212646484 -28.012136459351 0.000978 0.000978 -0.999999
148.680389404297 270.882049560547 -28.012178421021 0.000978 0.000978 -0.999999
150.366744995117 285.004180908203 -28.012125015259 0.000978 0.000978 -0.999999
162.638168334961 386.541137695313 -28.011743545532 0.000978 0.000978 -0.999999
162.122055053711 382.270751953125 -28.011760711670 0.000978 0.000978 -0.999999
193.061431884766 537.156433105469 -28.011138916016 0.000978 0.000978 -0.999999
151.053451538086 269.296142578125 -28.012189865112 0.000978 0.000978 -0.999999
159.386016845703 334.657043457031 -28.011940002441 0.000978 0.000978 -0.999999
146.509948730469 227.343673706055 -28.012350082397 0.000978 0.000978 -0.999999
154.371826171875 292.538330078125 -28.012100219727 0.000978 0.000978 -0.999999
166.161651611328 387.749542236328 -28.011735916138 0.000978 0.000978 -0.999999
154.899612426758 299.451263427734 -28.012073516846 0.000978 0.000978 -0.999999
161.794265747070 348.791107177734 -28.011886596680 0.000978 0.000978 -0.999999
149.145828247070 247.597930908203 -28.012271881104 0.000978 0.000978 -0.999999
179.144683837891 487.618347167969 -28.011356353760 0.000978 0.000978 -0.999999
166.282058715820 385.869750976563 -28.011743545532 0.000978 0.000978 -0.999999
167.399963378906 395.830657958984 -28.011705398560 0.000978 0.000978 -0.999999
178.454162597656 485.809600830078 -28.011362075806 0.000978 0.000978 -0.999999
156.365524291992 299.641387939453 -28.012073516846 0.000978 0.000978 -0.999999
168.793151855469 402.001281738281 -28.011682510376 0.000978 0.000978 -0.999999
149.306137084961 247.205947875977 -28.012273788452 0.000978 0.000978 -0.999999
158.005874633789 312.142303466797 -28.012025833130 0.000978 0.000978 -0.999999
179.321594238281 486.768432617188 -28.011358261108 0.000978 0.000978 -0.999999
150.957809448242 256.334289550781 -28.012237548828 0.000978 0.000978 -0.999999
169.891372680664 407.376220703125 -28.011661529541 0.000978 0.000978 -0.999999
159.904953002930 324.871765136719 -28.011976242065 0.000978 0.000978 -0.999999
170.271408081055 410.629333496094 -28.011650085449 0.000978 0.000978 -0.999999
160.245162963867 329.790466308594 -28.011957168579 0.000978 0.000978 -0.999999
180.540924072266 490.977722167969 -28.011341094971 0.000978 0.000978 -0.999999
159.883102416992 323.382934570313 -28.011981964111 0.000978 0.000978 -0.999999
158.350906372070 309.161193847656 -28.012035369873 0.000978 0.000978 -0.999999
149.247619628906 239.214508056641 -28.012304306030 0.000978 0.000978 -0.999999
165.683929443359 368.706420898438 -28.011808395386 0.000978 0.000978 -0.999999
153.951339721680 270.721771240234 -28.012182235718 0.000978 0.000978 -0.999999
166.196182250977 369.992858886719 -28.011804580688 0.000978 0.000978 -0.999999
171.980880737305 416.562194824219 -28.011625289917 0.000978 0.000978 -0.999999
179.052780151367 470.779357910156 -28.011421203613 0.000978 0.000978 -0.999999
164.764144897461 357.635925292969 -28.011852264404 0.000978 0.000978 -0.999999
159.531967163086 312.971527099609 -28.012022018433 0.000978 0.000978 -0.999999
179.370742797852 471.745361328125 -28.011417388916 0.000978 0.000978 -0.999999
172.992401123047 420.493041992188 -28.011611938477 0.000978 0.000978 -0.999999
154.725524902344 273.376922607422 -28.012170791626 0.000978 0.000978 -0.999999
169.159912109375 386.555389404297 -28.011739730835 0.000978 0.000978 -0.999999
169.533645629883 390.678619384766 -28.011724472046 0.000978 0.000978 -0.999999
176.804336547852 449.201354980469 -28.011503219604 0.000978 0.000978 -0.999999
179.393875122070 469.658233642578 -28.011425018311 0.000978 0.000978 -0.999999
153.636550903320 256.760375976563 -28.012231826782 0.000978 0.000978 -0.999999
151.808258056641 242.854644775391 -28.012285232544 0.000978 0.000978 -0.999999
163.017654418945 333.529541015625 -28.011941909790 0.000978 0.000978 -0.999999
157.732116699219 288.427490234375 -28.012111663818 0.000978 0.000978 -0.999999
157.580856323242 286.570556640625 -28.012117385864 0.000978 0.000978 -0.999999
170.814590454102 394.738220214844 -28.011711120605 0.000978 0.000978 -0.999999
181.091033935547 478.622619628906 -28.011392593384 0.000978 0.000978 -0.999999
117.292396545410 46.459239959717 -28.013027191162 0.000978 0.000978 -0.999999
111.346954345703 71.220520019531 -28.012928009033 0.000978 0.000978 -0.999999
115.229179382324 50.030609130859 -28.013004302979 0.000978 0.000978 -0.999999
115.736747741699 54.435020446777 -28.012998580933 0.000978 0.000978 -0.999999
111.656631469727 66.573059082031 -28.012941360474 0.000978 0.000978 -0.999999
112.387527465820 55.287738800049 -28.012983322144 0.000978 0.000978 -0.999999
157.652923583984 284.257049560547 -28.012126922607 0.000978 0.000978 -0.999999
151.185440063477 231.245147705078 -28.012325286865 0.000978 0.000978 -0.999999
150.813110351563 229.409515380859 -28.012332916260 0.000978 0.000978 -0.999999
171.025726318359 391.408691406250 -28.011724472046 0.000978 0.000978 -0.999999
121.547836303711 36.144699096680 -28.013053894043 0.000978 0.000978 -0.999999
180.441162109375 515.614929199219 -28.011207580566 0.000978 0.000978 -0.999999
153.872787475586 251.079254150391 -28.012248992920 0.000978 0.000978 -0.999999
181.597442626953 519.838012695313 -28.011196136475 0.000978 0.000978 -0.999999
179.580307006836 526.036865234375 -28.011180877686 0.000978 0.000978 -0.999999
177.458282470703 534.020996093750 -28.011140823364 0.000978 0.000978 -0.999999
176.299438476563 540.173645019531 -28.011117935181 0.000978 0.000978 -0.999999
179.228958129883 516.345092773438 -28.011198043823 0.000978 0.000978 -0.999999
184.075225830078 516.618774414063 -28.011203765869 0.000978 0.000978 -0.999999
135.788879394531 196.028533935547 -28.012454986572 0.000978 0.000978 -0.999999
131.844497680664 180.243835449219 -28.012512207031 0.000978 0.000978 -0.999999
142.385910034180 217.250579833984 -28.012367248535 0.000978 0.000978 -0.999999
127.122070312500 161.119964599609 -28.012580871582 0.000978 0.000978 -0.999999
128.077087402344 163.604934692383 -28.012571334839 0.000978 0.000978 -0.999999
139.971145629883 206.119354248047 -28.012407302856 0.000978 0.000978 -0.999999
121.135284423828 137.502853393555 -28.012672424316 0.000978 0.000978 -0.999999
121.557998657227 137.172286987305 -28.012672424316 0.000978 0.000978 -0.999999
127.323608398438 157.394622802734 -28.012592315674 0.000978 0.000978 -0.999999
139.061187744141 196.750015258789 -28.012451171875 0.000978 0.000978 -0.999999
121.926086425781 137.898208618164 -28.012670516968 0.000978 0.000978 -0.999999
134.250320434570 179.841567993164 -28.012516021729 0.000978 0.000978 -0.999999
117.333732604980 68.833694458008 -28.012981414795 0.000978 0.000978 -0.999999
111.140068054199 79.653121948242 -28.012910842896 0.000978 0.000978 -0.999999
136.607894897461 89.277297973633 -28.012857437134 0.000978 0.000978 -0.999999
135.433578491211 96.589569091797 -28.012830734253 0.000978 0.000978 -0.999999
127.055732727051 122.902023315430 -28.012733459473 0.000978 0.000978 -0.999999
139.914123535156 111.290611267090 -28.012775421143 0.000978 0.000978 -0.999999
122.534248352051 97.806526184082 -28.012826919556 0.000978 0.000978 -0.999999
139.049758911133 148.471527099609 -28.012638092041 0.000978 0.000978 -0.999999
143.492401123047 103.917861938477 -28.012804031372 0.000978 0.000978 -0.999999
137.694992065430 182.000534057617 -28.012514114380 0.000978 0.000978 -0.999999
140.895721435547 109.659988403320 -28.012783050537 0.000978 0.000978 -0.999999
137.678283691406 110.464050292969 -28.012779235840 0.000978 0.000978 -0.999999
143.689849853516 115.765541076660 -28.012760162354 0.000978 0.000978 -0.999999
117.925109863281 102.173713684082 -28.012809753418 0.000978 0.000978 -0.999999
134.972244262695 125.065078735352 -28.012725830078 0.000978 0.000978 -0.999999
127.308959960938 89.745079040527 -28.012855529785 0.000978 0.000978 -0.999999
141.026962280273 201.616699218750 -28.012441635132 0.000978 0.000978 -0.999999
143.954254150391 108.968421936035 -28.012784957886 0.000978 0.000978 -0.999999
108.202049255371 88.476753234863 -28.012861251831 0.000978 0.000978 -0.999999
140.374633789063 147.424468994141 -28.012641906738 0.000978 0.000978 -0.999999
140.159011840820 139.893890380859 -28.012670516968 0.000978 0.000978 -0.999999
130.593719482422 104.064941406250 -28.012802124023 0.000978 0.000978 -0.999999
132.770874023438 154.639480590820 -28.012615203857 0.000978 0.000978 -0.999999
132.342803955078 112.241607666016 -28.012773513794 0.000978 0.000978 -0.999999
127.290702819824 88.691238403320 -28.012859344482 0.000978 0.000978 -0.999999
132.985504150391 169.775634765625 -28.012559890747 0.000978 0.000978 -0.999999
134.415145874023 120.775787353516 -28.012741088867 0.000978 0.000978 -0.999999
130.772994995117 150.448028564453 -28.012630462646 0.000978 0.000978 -0.999999
123.979568481445 110.552383422852 -28.012779235840 0.000978 0.000978 -0.999999
142.576339721680 160.114807128906 -28.012594223022 0.000978 0.000978 -0.999999
127.845352172852 144.488296508789 -28.012653350830 0.000978 0.000978 -0.999999
132.570922851563 99.800659179688 -28.012819290161 0.000978 0.000978 -0.999999
144.247436523438 152.224090576172 -28.012624740601 0.000978 0.000978 -0.999999
141.746231079102 95.400657653809 -28.012834548950 0.000978 0.000978 -0.999999
127.777824401855 133.015777587891 -28.012695312500 0.000978 0.000978 -0.999999
139.924468994141 172.695312500000 -28.012548446655 0.000978 0.000978 -0.999999
140.808319091797 96.370918273926 -28.012830734253 0.000978 0.000978 -0.999999
137.771392822266 112.243385314941 -28.012773513794 0.000978 0.000978 -0.999999
141.658523559570 202.631576538086 -28.012437820435 0.000978 0.000978 -0.999999
142.881835937500 172.807937622070 -28.012548446655 0.000978 0.000978 -0.999999
136.329162597656 156.388366699219 -28.012609481812 0.000978 0.000978 -0.999999
138.273345947266 105.288330078125 -28.012798309326 0.000978 0.000978 -0.999999
136.400039672852 143.283477783203 -28.012657165527 0.000978 0.000978 -0.999999
113.698768615723 87.914909362793 -28.012863159180 0.000978 0.000978 -0.999999
123.103569030762 129.736602783203 -28.012708663940 0.000978 0.000978 -0.999999
134.785736083984 102.225883483887 -28.012809753418 0.000978 0.000978 -0.999999
143.787246704102 185.636199951172 -28.012500762939 0.000978 0.000978 -0.999999
129.604919433594 154.262603759766 -28.012617111206 0.000978 0.000978 -0.999999
132.031585693359 148.056015014648 -28.012639999390 0.000978 0.000978 -0.999999
142.454483032227 93.454772949219 -28.012842178345 0.000978 0.000978 -0.999999
122.835151672363 107.936279296875 -28.012788772583 0.000978 0.000978 -0.999999
136.449691772461 157.656448364258 -28.012603759766 0.000978 0.000978 -0.999999
129.897918701172 103.352066040039 -28.012805938721 0.000978 0.000978 -0.999999
144.597824096680 207.077301025391 -28.012420654297 0.000978 0.000978 -0.999999
115.608779907227 91.924850463867 -28.012847900391 0.000978 0.000978 -0.999999
140.476760864258 167.748901367188 -28.012567520142 0.000978 0.000978 -0.999999
133.516555786133 174.888214111328 -28.012540817261 0.000978 0.000978 -0.999999
132.644851684570 128.436584472656 -28.012712478638 0.000978 0.000978 -0.999999
139.068054199219 131.759826660156 -28.012701034546 0.000978 0.000978 -0.999999
128.986938476563 117.497909545898 -28.012752532959 0.000978 0.000978 -0.999999
138.540069580078 149.820312500000 -28.012632369995 0.000978 0.000978 -0.999999
119.496162414551 124.507560729980 -28.012727737427 0.000978 0.000978 -0.999999
142.161682128906 184.711242675781 -28.012504577637 0.000978 0.000978 -0.999999
132.399398803711 136.010772705078 -28.012683868408 0.000978 0.000978 -0.999999
136.523605346680 117.971443176270 -28.012750625610 0.000978 0.000978 -0.999999
141.570419311523 128.172988891602 -28.012714385986 0.000978 0.000978 -0.999999
122.159843444824 110.162117004395 -28.012781143188 0.000978 0.000978 -0.999999
128.840850830078 121.651779174805 -28.012737274170 0.000978 0.000978 -0.999999
121.355720520020 133.989013671875 -28.012691497803 0.000978 0.000978 -0.999999
129.060180664063 144.562469482422 -28.012653350830 0.000978 0.000978 -0.999999
136.500778198242 164.139831542969 -28.012580871582 0.000978 0.000978 -0.999999
118.311622619629 115.586891174316 -28.012760162354 0.000978 0.000978 -0.999999
140.566970825195 199.733657836914 -28.012447357178 0.000978 0.000978 -0.999999
137.954910278320 186.079299926758 -28.012498855591 0.000978 0.000978 -0.999999
134.483673095703 93.380279541016 -28.012842178345 0.000978 0.000978 -0.999999
121.755195617676 101.413070678711 -28.012813568115 0.000978 0.000978 -0.999999
119.502174377441 98.787414550781 -28.012823104858 0.000978 0.000978 -0.999999
138.646057128906 96.823143005371 -28.012830734253 0.000978 0.000978 -0.999999
137.695510864258 179.957809448242 -28.012521743774 0.000978 0.000978 -0.999999
122.462783813477 120.028137207031 -28.012742996216 0.000978 0.000978 -0.999999
140.371231079102 91.110275268555 -28.012851715088 0.000978 0.000978 -0.999999
140.823333740234 92.211204528809 -28.012845993042 0.000978 0.000978 -0.999999
122.262405395508 93.809883117676 -28.012840270996 0.000978 0.000978 -0.999999
140.072265625000 150.613571166992 -28.012630462646 0.000978 0.000978 -0.999999
111.821159362793 89.553565979004 -28.012857437134 0.000978 0.000978 -0.999999
135.883178710938 161.112762451172 -28.012590408325 0.000978 0.000978 -0.999999
142.849853515625 112.373626708984 -28.012771606445 0.000978 0.000978 -0.999999
138.872161865234 156.759033203125 -28.012607574463 0.000978 0.000978 -0.999999
144.749298095703 189.032958984375 -28.012487411499 0.000978 0.000978 -0.999999
142.519790649414 88.999755859375 -28.012859344482 0.000978 0.000978 -0.999999
130.514511108398 164.472747802734 -28.012578964233 0.000978 0.000978 -0.999999
135.930801391602 102.421714782715 -28.012809753418 0.000978 0.000978 -0.999999
119.546592712402 112.925537109375 -28.012769699097 0.000978 0.000978 -0.999999
143.228820800781 158.288360595703 -28.012601852417 0.000978 0.000978 -0.999999
144.962783813477 155.381179809570 -28.012611389160 0.000978 0.000978 -0.999999
145.928070068359 208.519012451172 -28.012414932251 0.000978 0.000978 -0.999999
145.586120605469 141.040634155273 -28.012664794922 0.000978 0.000978 -0.999999
146.580657958984 198.398986816406 -28.012451171875 0.000978 0.000978 -0.999999
145.392105102539 149.254562377930 -28.012636184692 0.000978 0.000978 -0.999999
147.147247314453 185.789627075195 -28.012487411499 0.000978 0.000978 -0.999999
145.297317504883 123.767784118652 -28.012729644775 0.000978 0.000978 -0.999999
147.143142700195 202.598754882813 -28.012434005737 0.000978 0.000978 -0.999999
147.500686645508 183.114410400391 -28.012493133545 0.000978 0.000978 -0.999999
148.272155761719 211.231445312500 -28.012384414673 0.000978 0.000978 -0.999999
147.217041015625 159.190887451172 -28.012588500977 0.000978 0.000978 -0.999999
148.570312500000 187.603088378906 -28.012481689453 0.000978 0.000978 -0.999999
115.229492187500 74.214256286621 -28.012948989868 0.000978 0.000978 -0.999999
118.067970275879 62.072803497314 -28.013010025024 0.000978 0.000978 -0.999999
113.566329956055 78.010620117188 -28.012926101685 0.000978 0.000978 -0.999999
117.037986755371 63.832977294922 -28.012998580933 0.000978 0.000978 -0.999999
193.180953979492 531.481689453125 -28.011138916016 0.000978 0.000978 -0.999999
194.081787109375 531.931030273438 -28.011129379272 0.000978 0.000978 -0.999999
187.623245239258 522.577636718750 -28.011188507080 0.000978 0.000978 -0.999999
118.008377075195 60.020217895508 -28.013011932373 0.000978 0.000978 -0.999999
115.355606079102 79.783714294434 -28.012914657593 0.000978 0.000978 -0.999999
123.076873779297 85.330490112305 -28.012878417969 0.000978 0.000978 -0.999999
125.852401733398 84.134010314941 -28.012886047363 0.000978 0.000978 -0.999999
130.442230224609 84.870269775391 -28.012882232666 0.000978 0.000978 -0.999999
137.813766479492 80.558815002441 -28.012910842896 0.000978 0.000978 -0.999999
129.368713378906 77.322280883789 -28.012929916382 0.000978 0.000978 -0.999999
121.766036987305 86.656730651855 -28.012870788574 0.000978 0.000978 -0.999999
127.645553588867 83.630920410156 -28.012889862061 0.000978 0.000978 -0.999999
137.579010009766 82.756340026855 -28.012895584106 0.000978 0.000978 -0.999999
115.080070495605 82.465080261230 -28.012897491455 0.000978 0.000978 -0.999999
137.378311157227 85.255874633789 -28.012880325317 0.000978 0.000978 -0.999999
116.069404602051 84.944549560547 -28.012882232666 0.000978 0.000978 -0.999999
134.537643432617 83.291435241699 -28.012891769409 0.000978 0.000978 -0.999999
131.251312255859 81.844581604004 -28.012901306152 0.000978 0.000978 -0.999999
124.495849609375 70.155136108398 -28.012975692749 0.000978 0.000978 -0.999999
136.947967529297 81.772377014160 -28.012903213501 0.000978 0.000978 -0.999999
117.171371459961 75.209152221680 -28.012943267822 0.000978 0.000978 -0.999999
119.759094238281 68.961196899414 -28.012983322144 0.000978 0.000978 -0.999999
125.259712219238 64.427925109863 -28.013008117676 0.000978 0.000978 -0.999999
112.893867492676 9.151026725769 -28.013158798218 0.000978 0.000978 -0.999999
110.853225708008 -2.408707618713 -28.013200759888 0.000978 0.000978 -0.999999
113.525299072266 7.810914993286 -28.013156890869 0.000978 0.000978 -0.999999
111.589607238770 -3.321383476257 -28.013198852539 0.000978 0.000978 -0.999999
118.176795959473 19.914886474609 -28.013107299805 0.000978 0.000978 -0.999999
128.798965454102 67.698173522949 -28.012985229492 0.000978 0.000978 -0.999999
109.729148864746 -0.268106460571 -28.013193130493 0.000978 0.000978 -0.999999
108.785003662109 44.696121215820 -28.013025283813 0.000978 0.000978 -0.999999
112.345832824707 31.048774719238 -28.013076782227 0.000978 0.000978 -0.999999
110.488548278809 -1.839651107788 -28.013198852539 0.000978 0.000978 -0.999999
109.243652343750 51.275306701660 -28.013000488281 0.000978 0.000978 -0.999999
111.178672790527 55.042892456055 -28.012987136841 0.000978 0.000978 -0.999999
107.725357055664 80.307510375977 -28.012891769409 0.000978 0.000978 -0.999999
109.791412353516 2.878056526184 -28.013181686401 0.000978 0.000978 -0.999999
114.858764648438 30.125495910645 -28.013082504272 0.000978 0.000978 -0.999999
109.648773193359 53.594284057617 -28.012992858887 0.000978 0.000978 -0.999999
114.981986999512 31.295372009277 -28.013076782227 0.000978 0.000978 -0.999999
111.845657348633 36.975074768066 -28.013053894043 0.000978 0.000978 -0.999999
109.991539001465 63.923851013184 -28.012952804565 0.000978 0.000978 -0.999999
108.703910827637 18.473091125488 -28.013124465942 0.000978 0.000978 -0.999999
113.425109863281 19.224361419678 -28.013122558594 0.000978 0.000978 -0.999999
113.639389038086 42.135314941406 -28.013034820557 0.000978 0.000978 -0.999999
107.792282104492 -11.461763381958 -28.013235092163 0.000978 0.000978 -0.999999
111.753921508789 50.833465576172 -28.013002395630 0.000978 0.000978 -0.999999
133.073898315430 13.152995109558 -28.013153076172 0.000978 0.000978 -0.999999
135.130828857422 64.727821350098 -28.012975692749 0.000978 0.000978 -0.999999
133.012344360352 54.789226531982 -28.013019561768 0.000978 0.000978 -0.999999
133.012054443359 48.814880371094 -28.013044357300 0.000978 0.000978 -0.999999
136.396423339844 45.199855804443 -28.013053894043 0.000978 0.000978 -0.999999
144.085357666016 31.680534362793 -28.013097763062 0.000978 0.000978 -0.999999
143.330902099609 35.740501403809 -28.013080596924 0.000978 0.000978 -0.999999
142.904098510742 58.225101470947 -28.012989044189 0.000978 0.000978 -0.999999
140.217956542969 43.851398468018 -28.013053894043 0.000978 0.000978 -0.999999
128.334167480469 60.493080139160 -28.013004302979 0.000978 0.000978 -0.999999
142.133178710938 76.309616088867 -28.012916564941 0.000978 0.000978 -0.999999
135.631820678711 58.629310607910 -28.013000488281 0.000978 0.000978 -0.999999
132.932342529297 47.528354644775 -28.013050079346 0.000978 0.000978 -0.999999
132.152770996094 41.070121765137 -28.013076782227 0.000978 0.000978 -0.999999
139.031692504883 52.110115051270 -28.013019561768 0.000978 0.000978 -0.999999
140.222595214844 44.552726745605 -28.013050079346 0.000978 0.000978 -0.999999
135.182723999023 49.673511505127 -28.013036727905 0.000978 0.000978 -0.999999
142.583770751953 17.326156616211 -28.013158798218 0.000978 0.000978 -0.999999
139.258483886719 75.455261230469 -28.012922286987 0.000978 0.000978 -0.999999
142.909698486328 21.496391296387 -28.013139724731 0.000978 0.000978 -0.999999
135.526199340820 60.925903320313 -28.012989044189 0.000978 0.000978 -0.999999
138.108108520508 59.833892822266 -28.012990951538 0.000978 0.000978 -0.999999
142.448516845703 53.856067657471 -28.013006210327 0.000978 0.000978 -0.999999
133.711471557617 56.283706665039 -28.013011932373 0.000978 0.000978 -0.999999
141.159835815430 38.779167175293 -28.013071060181 0.000978 0.000978 -0.999999
141.947219848633 18.567579269409 -28.013153076172 0.000978 0.000978 -0.999999
135.220062255859 53.546886444092 -28.013021469116 0.000978 0.000978 -0.999999
137.732864379883 62.660247802734 -28.012979507446 0.000978 0.000978 -0.999999
143.575637817383 30.119422912598 -28.013103485107 0.000978 0.000978 -0.999999
141.212081909180 14.214508056641 -28.013172149658 0.000978 0.000978 -0.999999
141.975921630859 51.974868774414 -28.013015747070 0.000978 0.000978 -0.999999
132.010604858398 14.953577041626 -28.013145446777 0.000978 0.000978 -0.999999
133.305984497070 14.671873092651 -28.013149261475 0.000978 0.000978 -0.999999
126.289497375488 44.067680358887 -28.013048171997 0.000978 0.000978 -0.999999
132.096740722656 37.157989501953 -28.013088226318 0.000978 0.000978 -0.999999
133.079864501953 27.574436187744 -28.013113021851 0.000978 0.000978 -0.999999
125.129188537598 46.661926269531 -28.013038635254 0.000978 0.000978 -0.999999
132.234405517578 39.821151733398 -28.013082504272 0.000978 0.000978 -0.999999
140.119354248047 15.691717147827 -28.013168334961 0.000978 0.000978 -0.999999
142.067031860352 9.164968490601 -28.013191223145 0.000978 0.000978 -0.999999
133.344833374023 25.073411941528 -28.013118743896 0.000978 0.000978 -0.999999
123.546752929688 -5.778091430664 -28.013225555420 0.000978 0.000978 -0.999999
120.266014099121 -4.495234966278 -28.013216018677 0.000978 0.000978 -0.999999
129.367889404297 -4.110525131226 -28.013225555420 0.000978 0.000978 -0.999999
121.624237060547 -3.179461956024 -28.013212203979 0.000978 0.000978 -0.999999
119.354835510254 16.648458480835 -28.013120651245 0.000978 0.000978 -0.999999
112.034004211426 -5.936447620392 -28.013212203979 0.000978 0.000978 -0.999999
134.123123168945 12.012185096741 -28.013160705566 0.000978 0.000978 -0.999999
117.014801025391 -8.133196830750 -28.013227462769 0.000978 0.000978 -0.999999
115.098899841309 -8.753746032715 -28.013227462769 0.000978 0.000978 -0.999999
138.599304199219 7.009030342102 -28.013189315796 0.000978 0.000978 -0.999999
133.007232666016 8.518526077271 -28.013174057007 0.000978 0.000978 -0.999999
110.851936340332 -9.885982513428 -28.013227462769 0.000978 0.000978 -0.999999
134.845046997070 -2.330601453781 -28.013225555420 0.000978 0.000978 -0.999999
127.039871215820 -5.276929855347 -28.013227462769 0.000978 0.000978 -0.999999
136.835479736328 5.211123466492 -28.013193130493 0.000978 0.000978 -0.999999
134.905227661133 -1.659404754639 -28.013221740723 0.000978 0.000978 -0.999999
140.245895385742 4.724979400635 -28.013200759888 0.000978 0.000978 -0.999999
130.639358520508 6.303847789764 -28.013181686401 0.000978 0.000978 -0.999999
140.288696289063 0.575312554836 -28.013219833374 0.000978 0.000978 -0.999999
121.655403137207 6.084377288818 -28.013170242310 0.000978 0.000978 -0.999999
134.490249633789 8.728445053101 -28.013174057007 0.000978 0.000978 -0.999999
116.929786682129 8.397637367249 -28.013154983521 0.000978 0.000978 -0.999999
136.684020996094 6.970357894897 -28.013185501099 0.000978 0.000978 -0.999999
116.319831848145 -6.805723667145 -28.013219833374 0.000978 0.000978 -0.999999
120.905380249023 0.025059223175 -28.013195037842 0.000978 0.000978 -0.999999
141.527023315430 5.158430099487 -28.013200759888 0.000978 0.000978 -0.999999
131.525863647461 19.411428451538 -28.013130187988 0.000978 0.000978 -0.999999
129.391403198242 28.354379653931 -28.013093948364 0.000978 0.000978 -0.999999
134.031509399414 21.884212493896 -28.013128280640 0.000978 0.000978 -0.999999
128.559967041016 25.206977844238 -28.013093948364 0.000978 0.000978 -0.999999
127.293472290039 29.527164459229 -28.013078689575 0.000978 0.000978 -0.999999
131.378143310547 24.073093414307 -28.013109207153 0.000978 0.000978 -0.999999
132.820785522461 25.322261810303 -28.013114929199 0.000978 0.000978 -0.999999
145.435638427734 -224.200744628906 -28.014080047607 0.000978 0.000978 -0.999999
165.577606201172 -289.113403320313 -28.014337539673 0.000978 0.000978 -0.999999
133.047241210938 -181.387420654297 -28.013908386230 0.000978 0.000978 -0.999999
140.617813110352 -232.975860595703 -28.014114379883 0.000978 0.000978 -0.999999
174.919616699219 -338.369140625000 -28.014533996582 0.000978 0.000978 -0.999999
157.381912231445 -259.254882812500 -28.014219284058 0.000978 0.000978 -0.999999
160.718704223633 -299.623077392578 -28.014379501343 0.000978 0.000978 -0.999999
147.046936035156 -261.261383056641 -28.014226913452 0.000978 0.000978 -0.999999
173.987442016602 -326.025238037109 -28.014484405518 0.000978 0.000978 -0.999999
157.313278198242 -344.295471191406 -28.014556884766 0.000978 0.000978 -0.999999
164.214782714844 -277.771240234375 -28.014291763306 0.000978 0.000978 -0.999999
140.588684082031 -157.316604614258 -28.013813018799 0.000978 0.000978 -0.999999
174.164581298828 -315.981567382813 -28.014444351196 0.000978 0.000978 -0.999999
152.670623779297 -255.574996948242 -28.014204025269 0.000978 0.000978 -0.999999
173.260604858398 -337.537719726563 -28.014530181885 0.000978 0.000978 -0.999999
141.558166503906 -236.965301513672 -28.014129638672 0.000978 0.000978 -0.999999
156.926025390625 -293.709197998047 -28.014356613159 0.000978 0.000978 -0.999999
179.567947387695 -317.133148193359 -28.014448165894 0.000978 0.000978 -0.999999
151.739059448242 -258.224334716797 -28.014215469360 0.000978 0.000978 -0.999999
153.576446533203 -258.167144775391 -28.014213562012 0.000978 0.000978 -0.999999
173.541229248047 -345.355804443359 -28.014560699463 0.000978 0.000978 -0.999999
139.087127685547 -209.618438720703 -28.014020919800 0.000978 0.000978 -0.999999
168.625747680664 -286.315551757813 -28.014326095581 0.000978 0.000978 -0.999999
115.817802429199 -58.622131347656 -28.013420104980 0.000978 0.000978 -0.999999
141.146530151367 -176.040771484375 -28.013887405396 0.000978 0.000978 -0.999999
155.792510986328 -281.019378662109 -28.014305114746 0.000978 0.000978 -0.999999
128.181320190430 -115.254135131836 -28.013645172119 0.000978 0.000978 -0.999999
138.621002197266 -185.327301025391 -28.013925552368 0.000978 0.000978 -0.999999
141.985549926758 -218.313385009766 -28.014055252075 0.000978 0.000978 -0.999999
144.499359130859 -207.490371704102 -28.014013290405 0.000978 0.000978 -0.999999
152.963302612305 -275.145568847656 -28.014282226563 0.000978 0.000978 -0.999999
149.009353637695 -275.273712158203 -28.014282226563 0.000978 0.000978 -0.999999
158.572738647461 -253.121612548828 -28.014194488525 0.000978 0.000978 -0.999999
171.887496948242 -341.791687011719 -28.014547348022 0.000978 0.000978 -0.999999
149.564361572266 -235.275024414063 -28.014123916626 0.000978 0.000978 -0.999999
167.068786621094 -300.844116210938 -28.014383316040 0.000978 0.000978 -0.999999
113.558776855469 -55.861633300781 -28.013410568237 0.000978 0.000978 -0.999999
153.267486572266 -315.103637695313 -28.014440536499 0.000978 0.000978 -0.999999
119.604820251465 -76.861938476563 -28.013492584229 0.000978 0.000978 -0.999999
156.512008666992 -307.271575927734 -28.014410018921 0.000978 0.000978 -0.999999
156.787048339844 -260.682586669922 -28.014225006104 0.000978 0.000978 -0.999999
129.491638183594 -133.886001586914 -28.013719558716 0.000978 0.000978 -0.999999
154.448867797852 -267.043640136719 -28.014249801636 0.000978 0.000978 -0.999999
155.228652954102 -259.568908691406 -28.014219284058 0.000978 0.000978 -0.999999
146.538818359375 -182.197052001953 -28.013912200928 0.000978 0.000978 -0.999999
135.990798950195 -168.920547485352 -28.013858795166 0.000978 0.000978 -0.999999
140.224380493164 -201.483764648438 -28.013988494873 0.000978 0.000978 -0.999999
183.315200805664 -331.820434570313 -28.014507293701 0.000978 0.000978 -0.999999
158.545059204102 -273.292175292969 -28.014274597168 0.000978 0.000978 -0.999999
112.478637695313 -44.859161376953 -28.013366699219 0.000978 0.000978 -0.999999
169.967559814453 -288.378906250000 -28.014333724976 0.000978 0.000978 -0.999999
168.446502685547 -283.411529541016 -28.014314651489 0.000978 0.000978 -0.999999
154.221679687500 -228.525772094727 -28.014097213745 0.000978 0.000978 -0.999999
183.801269531250 -338.402130126953 -28.014533996582 0.000978 0.000978 -0.999999
151.985916137695 -307.188507080078 -28.014410018921 0.000978 0.000978 -0.999999
146.562896728516 -211.517303466797 -28.014028549194 0.000978 0.000978 -0.999999
156.449005126953 -225.876251220703 -28.014085769653 0.000978 0.000978 -0.999999
139.021209716797 -177.958740234375 -28.013895034790 0.000978 0.000978 -0.999999
143.330825805664 -186.270034790039 -28.013927459717 0.000978 0.000978 -0.999999
143.328979492188 -222.928207397461 -28.014074325562 0.000978 0.000978 -0.999999
142.721405029297 -212.968566894531 -28.014034271240 0.000978 0.000978 -0.999999
141.337036132813 -227.379943847656 -28.014091491699 0.000978 0.000978 -0.999999
158.165191650391 -275.225830078125 -28.014282226563 0.000978 0.000978 -0.999999
159.871032714844 -324.696319580078 -28.014478683472 0.000978 0.000978 -0.999999
115.817634582520 -63.513427734375 -28.013441085815 0.000978 0.000978 -0.999999
114.126510620117 -53.427490234375 -28.013399124146 0.000978 0.000978 -0.999999
158.015090942383 -279.094604492188 -28.014297485352 0.000978 0.000978 -0.999999
168.810302734375 -340.680175781250 -28.014541625977 0.000978 0.000978 -0.999999
149.167846679688 -289.461334228516 -28.014339447021 0.000978 0.000978 -0.999999
139.053710937500 -174.365997314453 -28.013881683350 0.000978 0.000978 -0.999999
145.879013061523 -213.152648925781 -28.014036178589 0.000978 0.000978 -0.999999
155.503723144531 -276.368408203125 -28.014286041260 0.000978 0.000978 -0.999999
119.869079589844 -94.259780883789 -28.013563156128 0.000978 0.000978 -0.999999
121.576797485352 -102.533370971680 -28.013595581055 0.000978 0.000978 -0.999999
164.195053100586 -322.607940673828 -28.014471054077 0.000978 0.000978 -0.999999
140.782775878906 -161.244735717773 -28.013828277588 0.000978 0.000978 -0.999999
172.824035644531 -337.889923095703 -28.014532089233 0.000978 0.000978 -0.999999
150.175903320313 -236.980377197266 -28.014129638672 0.000978 0.000978 -0.999999
150.169326782227 -287.739929199219 -28.014331817627 0.000978 0.000978 -0.999999
148.383392333984 -213.072158813477 -28.014034271240 0.000978 0.000978 -0.999999
156.053619384766 -286.252624511719 -28.014326095581 0.000978 0.000978 -0.999999
159.379577636719 -317.360626220703 -28.014450073242 0.000978 0.000978 -0.999999
144.924987792969 -212.148880004883 -28.014030456543 0.000978 0.000978 -0.999999
147.731918334961 -221.181823730469 -28.014066696167 0.000978 0.000978 -0.999999
162.466018676758 -264.545501708984 -28.014240264893 0.000978 0.000978 -0.999999
156.052124023438 -291.181945800781 -28.014345169067 0.000978 0.000978 -0.999999
124.302276611328 -107.703186035156 -28.013616561890 0.000978 0.000978 -0.999999
179.397384643555 -318.961669921875 -28.014455795288 0.000978 0.000978 -0.999999
152.837280273438 -302.457366943359 -28.014390945435 0.000978 0.000978 -0.999999
168.344390869141 -279.875122070313 -28.014301300049 0.000978 0.000978 -0.999999
136.090194702148 -151.131011962891 -28.013788223267 0.000978 0.000978 -0.999999
136.208648681641 -176.215988159180 -28.013889312744 0.000978 0.000978 -0.999999
178.638015747070 -341.750183105469 -28.014547348022 0.000978 0.000978 -0.999999
177.247039794922 -345.136108398438 -28.014560699463 0.000978 0.000978 -0.999999
173.929046630859 -295.672088623047 -28.014364242554 0.000978 0.000978 -0.999999
148.008270263672 -228.304626464844 -28.014095306396 0.000978 0.000978 -0.999999
124.041320800781 -126.488983154297 -28.013690948486 0.000978 0.000978 -0.999999
148.717315673828 -221.701904296875 -28.014068603516 0.000978 0.000978 -0.999999
172.611282348633 -300.105773925781 -28.014381408691 0.000978 0.000978 -0.999999
130.623168945313 -146.051712036133 -28.013769149780 0.000978 0.000978 -0.999999
161.029220581055 -306.237304687500 -28.014406204224 0.000978 0.000978 -0.999999
145.391006469727 -249.985565185547 -28.014181137085 0.000978 0.000978 -0.999999
133.592681884766 -181.782821655273 -28.013910293579 0.000978 0.000978 -0.999999
163.069168090820 -337.011505126953 -28.014528274536 0.000978 0.000978 -0.999999
128.903640747070 -107.870620727539 -28.013616561890 0.000978 0.000978 -0.999999
162.540054321289 -300.395172119141 -28.014381408691 0.000978 0.000978 -0.999999
153.133224487305 -312.017761230469 -28.014429092407 0.000978 0.000978 -0.999999
173.023376464844 -345.177978515625 -28.014560699463 0.000978 0.000978 -0.999999
169.676696777344 -346.256011962891 -28.014564514160 0.000978 0.000978 -0.999999
140.872116088867 -203.995452880859 -28.013998031616 0.000978 0.000978 -0.999999
132.191787719727 -140.242233276367 -28.013746261597 0.000978 0.000978 -0.999999
128.961364746094 -129.806549072266 -28.013704299927 0.000978 0.000978 -0.999999
149.826797485352 -278.499938964844 -28.014295578003 0.000978 0.000978 -0.999999
120.758270263672 -74.658996582031 -28.013484954834 0.000978 0.000978 -0.999999
139.922805786133 -229.868606567383 -28.014101028442 0.000978 0.000978 -0.999999
128.427597045898 -150.349182128906 -28.013786315918 0.000978 0.000978 -0.999999
153.944442749023 -222.575302124023 -28.014072418213 0.000978 0.000978 -0.999999
154.355804443359 -262.153503417969 -28.014230728149 0.000978 0.000978 -0.999999
134.450347900391 -182.664047241211 -28.013914108276 0.000978 0.000978 -0.999999
134.292694091797 -166.180618286133 -28.013849258423 0.000978 0.000978 -0.999999
160.711166381836 -274.539306640625 -28.014280319214 0.000978 0.000978 -0.999999
153.370590209961 -214.650329589844 -28.014041900635 0.000978 0.000978 -0.999999
137.201934814453 -155.014205932617 -28.013803482056 0.000978 0.000978 -0.999999
147.930892944336 -237.960693359375 -28.014133453369 0.000978 0.000978 -0.999999
152.410278320313 -206.089172363281 -28.014007568359 0.000978 0.000978 -0.999999
152.589843750000 -237.341400146484 -28.014131546021 0.000978 0.000978 -0.999999
150.670471191406 -300.032684326172 -28.014381408691 0.000978 0.000978 -0.999999
127.368759155273 -102.316406250000 -28.013593673706 0.000978 0.000978 -0.999999
165.948471069336 -283.358978271484 -28.014314651489 0.000978 0.000978 -0.999999
137.975326538086 -151.426574707031 -28.013790130615 0.000978 0.000978 -0.999999
175.710372924805 -332.116149902344 -28.014509201050 0.000978 0.000978 -0.999999
170.239318847656 -320.553314208984 -28.014463424683 0.000978 0.000978 -0.999999
133.891677856445 -132.519729614258 -28.013713836670 0.000978 0.000978 -0.999999
185.200088500977 -343.683593750000 -28.014554977417 0.000978 0.000978 -0.999999
135.275634765625 -156.336700439453 -28.013809204102 0.000978 0.000978 -0.999999
148.757064819336 -273.123687744141 -28.014274597168 0.000978 0.000978 -0.999999
152.064208984375 -310.465179443359 -28.014421463013 0.000978 0.000978 -0.999999
148.616180419922 -269.568328857422 -28.014259338379 0.000978 0.000978 -0.999999
157.898849487305 -292.165771484375 -28.014348983765 0.000978 0.000978 -0.999999
140.979339599609 -190.181579589844 -28.013944625854 0.000978 0.000978 -0.999999
161.929275512695 -290.018676757813 -28.014341354370 0.000978 0.000978 -0.999999
128.211700439453 -141.253219604492 -28.013750076294 0.000978 0.000978 -0.999999
149.701431274414 -225.801269531250 -28.014085769653 0.000978 0.000978 -0.999999
123.327285766602 -97.662185668945 -28.013576507568 0.000978 0.000978 -0.999999
131.989364624023 -177.179489135742 -28.013893127441 0.000978 0.000978 -0.999999
154.508850097656 -275.094848632813 -28.014282226563 0.000978 0.000978 -0.999999
153.681945800781 -215.200241088867 -28.014043807983 0.000978 0.000978 -0.999999
158.925888061523 -244.589813232422 -28.014160156250 0.000978 0.000978 -0.999999
172.047134399414 -332.618591308594 -28.014511108398 0.000978 0.000978 -0.999999
167.739288330078 -305.501434326172 -28.014402389526 0.000978 0.000978 -0.999999
170.015625000000 -278.904357910156 -28.014297485352 0.000978 0.000978 -0.999999
145.824295043945 -209.401443481445 -28.014020919800 0.000978 0.000978 -0.999999
140.726577758789 -220.170089721680 -28.014062881470 0.000978 0.000978 -0.999999
168.701751708984 -342.583557128906 -28.014549255371 0.000978 0.000978 -0.999999
164.625213623047 -314.911468505859 -28.014440536499 0.000978 0.000978 -0.999999
164.182342529297 -319.167510986328 -28.014457702637 0.000978 0.000978 -0.999999
154.747863769531 -260.032836914063 -28.014221191406 0.000978 0.000978 -0.999999
164.168655395508 -319.562164306641 -28.014457702637 0.000978 0.000978 -0.999999
112.166709899902 -44.099853515625 -28.013362884521 0.000978 0.000978 -0.999999
131.698303222656 -144.535095214844 -28.013761520386 0.000978 0.000978 -0.999999
160.667037963867 -304.478332519531 -28.014398574829 0.000978 0.000978 -0.999999
150.447463989258 -212.854461669922 -28.014034271240 0.000978 0.000978 -0.999999
131.306137084961 -132.408645629883 -28.013713836670 0.000978 0.000978 -0.999999
164.387374877930 -266.783142089844 -28.014247894287 0.000978 0.000978 -0.999999
163.287811279297 -341.489898681641 -28.014545440674 0.000978 0.000978 -0.999999
161.164657592773 -331.783386230469 -28.014507293701 0.000978 0.000978 -0.999999
172.778350830078 -314.073394775391 -28.014436721802 0.000978 0.000978 -0.999999
178.399673461914 -317.393005371094 -28.014450073242 0.000978 0.000978 -0.999999
142.694549560547 -167.288406372070 -28.013853073120 0.000978 0.000978 -0.999999
164.511871337891 -258.316925048828 -28.014215469360 0.000978 0.000978 -0.999999
166.503570556641 -269.853637695313 -28.014261245728 0.000978 0.000978 -0.999999
129.639068603516 -124.710479736328 -28.013683319092 0.000978 0.000978 -0.999999
162.089508056641 -321.209594726563 -28.014465332031 0.000978 0.000978 -0.999999
154.229843139648 -273.006164550781 -28.014272689819 0.000978 0.000978 -0.999999
157.342651367188 -230.829650878906 -28.014104843140 0.000978 0.000978 -0.999999
149.667984008789 -249.818084716797 -28.014181137085 0.000978 0.000978 -0.999999
139.515121459961 -220.197875976563 -28.014062881470 0.000978 0.000978 -0.999999
126.934387207031 -134.463012695313 -28.013721466064 0.000978 0.000978 -0.999999
152.936645507813 -257.696289062500 -28.014211654663 0.000978 0.000978 -0.999999
