//X Y Z Nx Ny Nz
605
179.014389038086 361.381134033203 20.929702758789 0.000978 0.000978 -0.999999
184.496582031250 375.692687988281 20.929704666138 0.000978 0.000978 -0.999999
185.322296142578 377.287994384766 20.929704666138 0.000978 0.000978 -0.999999
183.820831298828 386.872253417969 20.929704666138 0.000978 0.000978 -0.999999
185.655075073242 396.548767089844 20.929704666138 0.000978 0.000978 -0.999999
183.967590332031 396.427215576172 20.929704666138 0.000978 0.000978 -0.999999
173.931808471680 352.029602050781 20.929702758789 0.000978 0.000978 -0.999999
179.453094482422 401.467620849609 20.929704666138 0.000978 0.000978 -0.999999
181.100219726563 422.242919921875 20.929706573486 0.000978 0.000978 -0.999999
205.439437866211 516.364318847656 20.929710388184 0.000978 0.000978 -0.999999
197.684600830078 515.673034667969 20.929710388184 0.000978 0.000978 -0.999999
197.276306152344 533.612121582031 20.929710388184 0.000978 0.000978 -0.999999
197.172332763672 508.521728515625 20.929710388184 0.000978 0.000978 -0.999999
198.165924072266 525.212219238281 20.929710388184 0.000978 0.000978 -0.999999
197.071609497070 513.831787109375 20.929710388184 0.000978 0.000978 -0.999999
205.624755859375 534.986267089844 20.929710388184 0.000978 0.000978 -0.999999
204.252120971680 528.028076171875 20.929710388184 0.000978 0.000978 -0.999999
199.479705810547 532.890380859375 20.929710388184 0.000978 0.000978 -0.999999
205.109115600586 519.966979980469 20.929710388184 0.000978 0.000978 -0.999999
202.885177612305 507.901336669922 20.929710388184 0.000978 0.000978 -0.999999
201.318222045898 503.968017578125 20.929710388184 0.000978 0.000978 -0.999999
207.702377319336 506.003356933594 20.929710388184 0.000978 0.000978 -0.999999
210.057815551758 532.191223144531 20.929710388184 0.000978 0.000978 -0.999999
208.767318725586 520.471313476563 20.929710388184 0.000978 0.000978 -0.999999
211.994186401367 508.801239013672 20.929710388184 0.000978 0.000978 -0.999999
220.506027221680 532.832885742188 20.929710388184 0.000978 0.000978 -0.999999
217.748428344727 524.135375976563 20.929710388184 0.000978 0.000978 -0.999999
222.709533691406 529.964538574219 20.929710388184 0.000978 0.000978 -0.999999
216.568450927734 524.323730468750 20.929710388184 0.000978 0.000978 -0.999999
214.928817749023 508.944488525391 20.929710388184 0.000978 0.000978 -0.999999
217.972579956055 507.169860839844 20.929710388184 0.000978 0.000978 -0.999999
220.843002319336 513.720397949219 20.929710388184 0.000978 0.000978 -0.999999
220.297973632813 510.302398681641 20.929710388184 0.000978 0.000978 -0.999999
224.153579711914 527.209167480469 20.929710388184 0.000978 0.000978 -0.999999
223.637145996094 514.402099609375 20.929710388184 0.000978 0.000978 -0.999999
208.455474853516 507.679504394531 20.929710388184 0.002938 0.000979 -0.999995
200.237716674805 503.286895751953 20.929710388184 0.000978 0.000978 -0.999999
202.347732543945 488.943359375000 20.929708480835 0.000978 0.000978 -0.999999
200.667434692383 497.636901855469 20.929708480835 0.000978 0.000978 -0.999999
196.764190673828 500.389587402344 20.929710388184 0.000978 0.000978 -0.999999
192.204833984375 492.034179687500 20.929708480835 0.000978 0.000978 -0.999999
208.744110107422 496.611633300781 20.929708480835 0.000978 0.000978 -0.999999
133.368804931641 13.207411766052 20.929687500000 0.000978 0.000978 -0.999999
136.863967895508 -2.366243362427 20.929687500000 0.000978 0.000978 -0.999999
133.724060058594 2.554218292236 20.929685592651 0.000978 0.000978 -0.999999
139.013183593750 7.042655944824 20.929687500000 0.000978 0.000978 -0.999999
131.763031005859 -23.805433273315 20.929685592651 0.000978 0.000978 -0.999999
133.555145263672 10.786026954651 20.929687500000 0.000978 0.000978 -0.999999
136.871383666992 -5.006368637085 20.929687500000 0.000978 0.000978 -0.999999
140.977279663086 -6.852914333344 20.929687500000 0.000978 0.000978 -0.999999
138.985977172852 -33.020305633545 20.929685592651 0.000978 0.000978 -0.999999
132.516448974609 -36.936107635498 20.929685592651 0.000978 0.000978 -0.999999
140.703414916992 -46.332504272461 20.929685592651 0.000978 0.000978 -0.999999
132.152542114258 -40.346076965332 20.929685592651 0.000978 0.000978 -0.999999
139.918487548828 -73.890632629395 20.929683685303 0.000978 0.000978 -0.999999
138.860763549805 -9.769554138184 20.929685592651 0.000978 0.000978 -0.999999
133.325271606445 -46.388957977295 20.929685592651 0.000978 0.000978 -0.999999
139.816436767578 -21.643165588379 20.929685592651 0.000978 0.000978 -0.999999
140.584457397461 -32.093307495117 20.929685592651 0.000978 0.000978 -0.999999
140.129119873047 -10.944053649902 20.929687500000 0.000978 0.000978 -0.999999
134.674301147461 -41.256099700928 20.929685592651 0.000978 0.000978 -0.999999
136.158309936523 -39.279815673828 20.929685592651 0.000978 0.000978 -0.999999
139.114990234375 -23.081504821777 20.929685592651 0.000978 0.000978 -0.999999
137.740676879883 -65.957023620605 20.929683685303 0.000978 0.000978 -0.999999
141.096405029297 -78.958091735840 20.929683685303 0.000978 0.000978 -0.999999
141.891510009766 -32.611534118652 20.929685592651 0.000978 0.000978 -0.999999
141.789108276367 -49.544811248779 20.929685592651 0.000978 0.000978 -0.999999
143.007446289063 -16.678489685059 20.929687500000 0.000978 0.000978 -0.999999
144.207153320313 -1.396898150444 20.929687500000 0.000978 0.000978 -0.999999
146.260391235352 -69.680625915527 20.929683685303 0.000978 0.000978 -0.999999
147.773971557617 -140.314041137695 20.929681777954 0.000978 0.000978 -0.999999
145.109497070313 -25.948020935059 20.929685592651 0.000978 0.000978 -0.999999
146.644561767578 -115.682128906250 20.929681777954 0.000978 0.000978 -0.999999
146.211837768555 -108.579994201660 20.929683685303 0.000978 0.000978 -0.999999
145.171813964844 -41.850799560547 20.929685592651 0.000978 0.000978 -0.999999
143.900054931641 -110.073112487793 20.929683685303 0.000978 0.000978 -0.999999
147.032363891602 -135.136032104492 20.929681777954 0.000978 0.000978 -0.999999
145.061080932617 -116.148529052734 20.929681777954 0.000978 0.000978 -0.999999
148.050994873047 -132.210098266602 20.929681777954 0.000978 0.000978 -0.999999
141.595001220703 -101.134292602539 20.929683685303 0.000978 0.000978 -0.999999
143.207336425781 -92.687034606934 20.929685592651 0.000978 0.000978 -0.999999
141.733459472656 -83.118194580078 20.929683685303 0.000978 0.000978 -0.999999
146.102447509766 -77.346893310547 20.929683685303 0.000978 0.000978 -0.999999
146.620101928711 -58.609035491943 20.929685592651 0.000978 0.000978 -0.999999
146.898071289063 -68.731781005859 20.929685592651 0.000978 0.000978 -0.999999
145.907577514648 -11.227396011353 20.929685592651 0.000978 0.000978 -0.999999
146.098495483398 1.749450683594 20.929687500000 0.000978 0.000978 -0.999999
147.067886352539 -42.172405242920 20.929685592651 0.000978 0.000978 -0.999999
147.380676269531 -18.141916275024 20.929685592651 0.000978 0.000978 -0.999999
147.441116333008 -8.052333831787 20.929687500000 0.000978 0.000978 -0.999999
148.166992187500 -59.342235565186 20.929685592651 -0.000978 0.000978 -0.999999
148.867126464844 90.930595397949 20.929691314697 0.000978 0.000978 -0.999999
148.780029296875 68.829757690430 20.929691314697 0.000978 0.000978 -0.999999
147.922210693359 73.185920715332 20.929691314697 0.000978 0.000978 -0.999999
147.133163452148 53.257652282715 20.929689407349 0.000978 0.000978 -0.999999
141.686492919922 118.353591918945 20.929693222046 0.000978 0.000978 -0.999999
147.830184936523 106.457458496094 20.929693222046 0.000978 0.000978 -0.999999
143.605056762695 93.255836486816 20.929691314697 0.000978 0.000978 -0.999999
144.772186279297 92.836547851563 20.929691314697 0.000978 0.000978 -0.999999
148.751937866211 122.497932434082 20.929693222046 0.000978 0.000978 -0.999999
144.413467407227 119.186584472656 20.929693222046 0.000978 0.000978 -0.999999
146.583190917969 69.815505981445 20.929691314697 0.000978 0.000978 -0.999999
147.310424804688 86.155975341797 20.929691314697 0.000978 0.000978 -0.999999
142.747100830078 114.872108459473 20.929693222046 0.000978 0.000978 -0.999999
144.453735351563 51.556953430176 20.929689407349 0.000978 0.000978 -0.999999
143.391967773438 35.295169830322 20.929689407349 0.000978 0.000978 -0.999999
141.407363891602 58.833938598633 20.929691314697 0.000978 0.000978 -0.999999
141.918502807617 41.436820983887 20.929689407349 -0.000978 0.000978 -0.999999
144.193069458008 47.637580871582 20.929689407349 0.000978 0.000978 -0.999999
142.446502685547 48.296543121338 20.929689407349 -0.000978 0.000978 -0.999999
141.227737426758 102.460021972656 20.929691314697 0.000978 0.000978 -0.999999
157.349380493164 110.888862609863 20.929693222046 0.000978 0.000978 -0.999999
153.623336791992 79.746765136719 20.929691314697 0.000978 0.000978 -0.999999
157.359634399414 97.315391540527 20.929693222046 0.000978 0.000978 -0.999999
154.259033203125 86.683486938477 20.929691314697 0.000978 0.000978 -0.999999
155.303741455078 62.272613525391 20.929689407349 0.000978 0.000978 -0.999999
157.815246582031 82.051261901855 20.929691314697 0.000978 0.000978 -0.999999
156.238723754883 107.332496643066 20.929693222046 0.000978 0.000978 -0.999999
154.673400878906 80.200508117676 20.929691314697 0.000978 0.000978 -0.999999
154.791687011719 84.639335632324 20.929691314697 0.000978 0.000978 -0.999999
155.925094604492 85.201782226563 20.929693222046 0.000978 0.000978 -0.999999
149.936706542969 60.583614349365 20.929689407349 0.000978 0.000978 -0.999999
150.615676879883 83.572326660156 20.929691314697 0.000978 0.000978 -0.999999
150.749755859375 70.965553283691 20.929691314697 0.000978 0.000978 -0.999999
153.222564697266 112.681266784668 20.929693222046 0.000978 0.000978 -0.999999
152.980407714844 113.147865295410 20.929693222046 0.000978 0.000978 -0.999999
155.110519409180 101.200736999512 20.929691314697 0.000978 0.000978 -0.999999
152.267837524414 94.057418823242 20.929691314697 0.000978 0.000978 -0.999999
152.688903808594 115.187820434570 20.929693222046 0.000978 0.000978 -0.999999
152.352615356445 102.534065246582 20.929691314697 0.000978 0.000978 -0.999999
191.016448974609 470.458648681641 20.929708480835 0.000978 0.000978 -0.999999
200.615264892578 458.262268066406 20.929706573486 0.000978 0.000978 -0.999999
207.637847900391 454.291046142578 20.929706573486 0.000978 0.000978 -0.999999
191.393539428711 483.175872802734 20.929708480835 0.000978 0.000978 -0.999999
192.376739501953 483.289520263672 20.929708480835 0.000978 0.000978 -0.999999
198.350509643555 480.173278808594 20.929708480835 0.000978 0.000978 -0.999999
197.350387573242 474.840911865234 20.929708480835 0.000978 0.000978 -0.999999
188.354141235352 455.024017333984 20.929706573486 0.000978 0.000978 -0.999999
198.034820556641 456.937561035156 20.929706573486 0.000978 0.000978 -0.999999
194.362045288086 471.217681884766 20.929708480835 0.000978 0.000978 -0.999999
190.796539306641 468.652252197266 20.929708480835 0.000978 0.000978 -0.999999
200.769302368164 475.148498535156 20.929708480835 0.000978 0.000978 -0.999999
190.306060791016 374.718872070313 20.929704666138 0.000978 0.000978 -0.999999
195.027420043945 462.212310791016 20.929708480835 0.000978 0.000978 -0.999999
188.390518188477 388.971893310547 20.929704666138 0.000978 0.000978 -0.999999
188.055755615234 394.354034423828 20.929704666138 0.000978 0.000978 -0.999999
189.809432983398 432.308532714844 20.929708480835 0.000978 0.000978 -0.999999
193.918914794922 451.284667968750 20.929706573486 0.000978 0.000978 -0.999999
193.820968627930 425.752014160156 20.929704666138 0.000978 0.000978 -0.999999
191.644729614258 469.163024902344 20.929708480835 0.000978 0.000978 -0.999999
191.021896362305 401.391540527344 20.929704666138 0.000978 0.000978 -0.999999
190.964767456055 461.042266845703 20.929708480835 0.000978 0.000978 -0.999999
199.139404296875 461.663238525391 20.929708480835 0.000978 0.000978 -0.999999
194.457336425781 423.593902587891 20.929706573486 0.000978 0.000978 -0.999999
191.129882812500 450.746337890625 20.929708480835 0.000978 0.000978 -0.999999
191.275390625000 425.899810791016 20.929706573486 0.000978 0.000978 -0.999999
196.893203735352 441.645599365234 20.929706573486 0.000978 0.000978 -0.999999
192.106811523438 397.365661621094 20.929704666138 0.000978 0.000978 -0.999999
198.314544677734 453.899047851563 20.929706573486 0.000978 0.000978 -0.999999
194.072982788086 455.637145996094 20.929708480835 0.000978 0.000978 -0.999999
191.862319946289 411.851257324219 20.929706573486 0.000978 0.000978 -0.999999
188.889617919922 361.937835693359 20.929702758789 0.000978 0.000978 -0.999999
190.627670288086 376.889648437500 20.929704666138 0.000978 0.000978 -0.999999
189.404067993164 364.745208740234 20.929704666138 0.000978 0.000978 -0.999999
204.582855224609 430.835388183594 20.929706573486 0.000978 0.000978 -0.999999
205.920913696289 376.570098876953 20.929704666138 0.000978 0.000978 -0.999999
204.097412109375 358.768371582031 20.929702758789 0.000978 0.000978 -0.999999
206.950698852539 398.050231933594 20.929704666138 0.000978 0.000978 -0.999999
203.792907714844 432.358428955078 20.929706573486 0.000978 0.000978 -0.999999
202.357589721680 341.938049316406 20.929702758789 0.000978 0.000978 -0.999999
203.376724243164 388.390716552734 20.929704666138 0.000978 0.000978 -0.999999
203.485534667969 432.480468750000 20.929706573486 0.000978 0.000978 -0.999999
207.167984008789 409.080200195313 20.929704666138 0.000978 0.000978 -0.999999
205.525497436523 394.594818115234 20.929704666138 0.000978 0.000978 -0.999999
205.827697753906 440.946044921875 20.929706573486 0.000978 0.000978 -0.999999
205.890213012695 451.447692871094 20.929706573486 0.000978 0.000978 -0.999999
206.731933593750 458.763702392578 20.929708480835 0.000978 0.000978 -0.999999
206.783569335938 471.028106689453 20.929708480835 0.000978 0.000978 -0.999999
205.373504638672 484.484771728516 20.929708480835 0.000978 0.000978 -0.999999
204.304306030273 487.159698486328 20.929708480835 0.000978 0.000978 -0.999999
162.816680908203 170.161453247070 20.929695129395 0.000978 0.000978 -0.999999
173.683547973633 184.962768554688 20.929697036743 0.000978 0.000978 -0.999999
182.323410034180 210.289016723633 20.929697036743 0.000978 0.000978 -0.999999
179.946212768555 190.836334228516 20.929697036743 0.000978 0.000978 -0.999999
181.984451293945 208.848266601563 20.929697036743 0.000978 0.000978 -0.999999
176.732971191406 148.217437744141 20.929695129395 0.000978 0.000978 -0.999999
179.575454711914 194.289306640625 20.929697036743 0.000978 0.000978 -0.999999
176.831802368164 181.561569213867 20.929695129395 0.000978 0.000978 -0.999999
175.798400878906 203.381500244141 20.929697036743 0.000978 0.000978 -0.999999
178.026046752930 184.976211547852 20.929695129395 0.000978 0.000978 -0.999999
176.955322265625 158.334381103516 20.929695129395 0.000978 0.000978 -0.999999
179.010131835938 165.668212890625 20.929695129395 0.000978 0.000978 -0.999999
174.545761108398 201.696014404297 20.929697036743 0.000978 0.000978 -0.999999
184.704223632813 205.842300415039 20.929697036743 0.000978 0.000978 -0.999999
175.726242065430 140.249603271484 20.929693222046 0.000978 0.000978 -0.999999
178.306579589844 207.032867431641 20.929697036743 0.000978 0.000978 -0.999999
176.203826904297 207.491836547852 20.929697036743 0.000978 0.000978 -0.999999
161.202285766602 239.565628051758 20.929698944092 0.000978 0.000978 -0.999999
164.715118408203 212.978454589844 20.929697036743 0.000978 0.000978 -0.999999
166.629669189453 185.930801391602 20.929697036743 0.000978 0.000978 -0.999999
167.978515625000 191.172134399414 20.929697036743 0.000978 0.000978 -0.999999
172.405456542969 180.165588378906 20.929697036743 0.000978 0.000978 -0.999999
172.277099609375 190.623962402344 20.929697036743 0.000978 0.000978 -0.999999
183.363143920898 307.754699707031 20.929700851440 0.000978 0.000978 -0.999999
183.833633422852 237.683486938477 20.929697036743 0.000978 0.000978 -0.999999
180.834640502930 254.251525878906 20.929698944092 0.000978 0.000978 -0.999999
182.151611328125 246.827362060547 20.929698944092 0.000978 0.000978 -0.999999
182.090866088867 243.350051879883 20.929698944092 0.000978 0.000978 -0.999999
182.513259887695 224.689514160156 20.929697036743 0.000978 0.000978 -0.999999
178.327331542969 241.123916625977 20.929697036743 0.000978 0.000978 -0.999999
179.426376342773 242.417266845703 20.929698944092 0.000978 0.000978 -0.999999
181.697418212891 291.333831787109 20.929700851440 0.000978 0.000978 -0.999999
179.317382812500 250.031494140625 20.929697036743 0.000978 0.000978 -0.999999
177.708038330078 249.285980224609 20.929698944092 0.000978 0.000978 -0.999999
185.630187988281 223.210922241211 20.929697036743 0.000978 0.000978 -0.999999
179.189117431641 245.026443481445 20.929697036743 0.000978 0.000978 -0.999999
180.012374877930 222.640533447266 20.929698944092 0.000978 0.000978 -0.999999
185.608032226563 290.222351074219 20.929700851440 0.000978 0.000978 -0.999999
181.627685546875 289.033264160156 20.929700851440 0.000978 0.000978 -0.999999
183.424057006836 219.296417236328 20.929697036743 0.000978 0.000978 -0.999999
182.357192993164 286.921813964844 20.929700851440 0.000978 0.000978 -0.999999
185.870651245117 238.370986938477 20.929698944092 0.000978 0.000978 -0.999999
184.972885131836 283.806121826172 20.929700851440 0.000978 0.000978 -0.999999
181.415832519531 260.535614013672 20.929698944092 0.000978 0.000978 -0.999999
185.092391967773 301.188629150391 20.929700851440 0.000978 0.000978 -0.999999
176.454406738281 220.468017578125 20.929697036743 0.000978 0.000978 -0.999999
184.783691406250 227.973312377930 20.929698944092 0.000978 0.000978 -0.999999
182.340103149414 222.847015380859 20.929697036743 0.000978 0.000978 -0.999999
191.891067504883 318.484191894531 20.929700851440 0.000978 0.000978 -0.999999
196.883483886719 322.799804687500 20.929702758789 0.000978 0.000978 -0.999999
196.571090698242 313.735778808594 20.929700851440 0.000978 0.000978 -0.999999
192.994140625000 292.306335449219 20.929700851440 0.000978 0.000978 -0.999999
192.205307006836 271.242736816406 20.929698944092 0.000978 0.000978 -0.999999
189.884353637695 303.671234130859 20.929700851440 0.000978 0.000978 -0.999999
187.824661254883 288.851074218750 20.929700851440 0.000978 0.000978 -0.999999
190.219329833984 299.138885498047 20.929700851440 0.000978 0.000978 -0.999999
199.380691528320 337.588134765625 20.929702758789 0.000978 0.000978 -0.999999
191.416458129883 260.762451171875 20.929698944092 0.000978 0.000978 -0.999999
190.873855590820 333.180999755859 20.929702758789 0.000978 0.000978 -0.999999
189.861740112305 288.364807128906 20.929700851440 0.000978 0.000978 -0.999999
195.858963012695 298.182495117188 20.929700851440 0.000978 0.000978 -0.999999
186.959655761719 246.832061767578 20.929698944092 0.000978 0.000978 -0.999999
190.129165649414 275.401824951172 20.929698944092 0.000978 0.000978 -0.999999
191.176956176758 270.145904541016 20.929698944092 0.000978 0.000978 -0.999999
187.837265014648 334.125427246094 20.929702758789 0.000978 0.000978 -0.999999
189.931655883789 306.893249511719 20.929700851440 0.000978 0.000978 -0.999999
188.221847534180 275.676971435547 20.929698944092 0.000978 0.000978 -0.999999
192.922378540039 279.715759277344 20.929698944092 0.000978 0.000978 -0.999999
189.285171508789 247.250839233398 20.929698944092 0.000978 0.000978 -0.999999
188.097991943359 285.397888183594 20.929700851440 0.000978 0.000978 -0.999999
195.360076904297 302.710998535156 20.929700851440 0.000978 0.000978 -0.999999
192.036071777344 292.620330810547 20.929700851440 0.000978 0.000978 -0.999999
193.873062133789 278.597045898438 20.929698944092 0.000978 0.000978 -0.999999
188.078720092773 282.458129882813 20.929700851440 0.000978 0.000978 -0.999999
202.102416992188 445.873352050781 20.929706573486 0.000978 0.000978 -0.999999
194.484405517578 350.016906738281 20.929702758789 0.000978 0.000978 -0.999999
200.695007324219 418.024688720703 20.929706573486 0.000978 0.000978 -0.999999
196.559188842773 361.378814697266 20.929704666138 0.000978 0.000978 -0.999999
202.464645385742 384.589508056641 20.929704666138 0.000978 0.000978 -0.999999
200.319839477539 414.154479980469 20.929706573486 0.000978 0.000978 -0.999999
202.214706420898 355.392089843750 20.929702758789 0.000978 0.000978 -0.999999
200.836669921875 407.683258056641 20.929706573486 0.000978 0.000978 -0.999999
195.941040039063 400.382385253906 20.929706573486 0.000978 0.000978 -0.999999
198.538375854492 371.268981933594 20.929702758789 0.000978 0.000978 -0.999999
200.167587280273 393.330139160156 20.929706573486 0.000978 0.000978 -0.999999
195.746765136719 350.807189941406 20.929702758789 0.000978 0.000978 -0.999999
201.700057983398 351.514282226563 20.929702758789 0.000978 0.000978 -0.999999
201.120468139648 434.594604492188 20.929706573486 0.000978 0.000978 -0.999999
196.871978759766 361.633666992188 20.929704666138 0.000978 0.000978 -0.999999
194.046859741211 343.077941894531 20.929702758789 0.000978 0.000978 -0.999999
191.793869018555 362.579803466797 20.929704666138 0.000978 0.000978 -0.999999
196.778411865234 405.769226074219 20.929706573486 0.000978 0.000978 -0.999999
191.458953857422 344.241851806641 20.929702758789 0.000978 0.000978 -0.999999
200.294296264648 417.707885742188 20.929706573486 0.000978 0.000978 -0.999999
194.315338134766 374.185211181641 20.929702758789 0.000978 0.000978 -0.999999
193.784240722656 369.257385253906 20.929702758789 0.000978 0.000978 -0.999999
194.397888183594 368.876281738281 20.929702758789 0.000978 0.000978 -0.999999
196.995178222656 388.238220214844 20.929704666138 0.000978 0.000978 -0.999999
192.618774414063 361.669982910156 20.929702758789 0.000978 0.000978 -0.999999
201.938156127930 435.295837402344 20.929706573486 0.000978 0.000978 -0.999999
202.060134887695 372.795166015625 20.929704666138 0.000978 0.000978 -0.999999
196.909973144531 382.353149414063 20.929704666138 0.000978 0.000978 -0.999999
203.294982910156 434.993988037109 20.929706573486 0.000978 0.000978 -0.999999
173.589294433594 224.248992919922 20.929698944092 0.000978 0.000978 -0.999999
178.454391479492 271.658813476563 20.929698944092 0.000978 0.000978 -0.999999
180.029434204102 324.543975830078 20.929702758789 0.000978 0.000978 -0.999999
181.668670654297 313.513763427734 20.929700851440 0.000978 0.000978 -0.999999
174.940002441406 280.261474609375 20.929700851440 0.000978 0.000978 -0.999999
180.859588623047 292.673156738281 20.929700851440 0.000978 0.000978 -0.999999
170.848846435547 264.309417724609 20.929698944092 0.000978 0.000978 -0.999999
175.396682739258 266.782440185547 20.929698944092 0.000978 0.000978 -0.999999
171.512069702148 240.086059570313 20.929698944092 0.000978 0.000978 -0.999999
171.703170776367 322.453796386719 20.929702758789 0.000978 0.000978 -0.999999
180.434707641602 317.594604492188 20.929700851440 0.000978 0.000978 -0.999999
174.407394409180 317.124206542969 20.929700851440 0.000978 0.000978 -0.999999
169.881790161133 311.490966796875 20.929700851440 0.000978 0.000978 -0.999999
179.045013427734 307.332153320313 20.929700851440 0.000978 0.000978 -0.999999
182.623611450195 336.657714843750 20.929702758789 0.000978 0.000978 -0.999999
170.768417358398 230.569030761719 20.929698944092 0.000978 0.000978 -0.999999
175.116348266602 321.009704589844 20.929702758789 0.000978 0.000978 -0.999999
179.969512939453 328.955657958984 20.929702758789 0.000978 0.000978 -0.999999
174.738464355469 304.141723632813 20.929700851440 0.000978 0.000978 -0.999999
170.681365966797 320.278930664063 20.929702758789 0.000978 0.000978 -0.999999
177.371307373047 300.158111572266 20.929700851440 0.000978 0.000978 -0.999999
170.001434326172 320.880981445313 20.929702758789 0.000978 0.000978 -0.999999
171.511337280273 254.619201660156 20.929698944092 0.000978 0.000978 -0.999999
177.941177368164 295.765258789063 20.929700851440 0.000978 0.000978 -0.999999
178.327743530273 291.838562011719 20.929700851440 0.000978 0.000978 -0.999999
175.261489868164 324.384918212891 20.929702758789 0.000978 0.000978 -0.999999
176.495513916016 315.536926269531 20.929700851440 0.000978 0.000978 -0.999999
176.395156860352 322.458343505859 20.929702758789 0.000978 0.000978 -0.999999
178.501953125000 298.986877441406 20.929700851440 0.000978 0.000978 -0.999999
175.454803466797 328.627899169922 20.929702758789 0.000978 0.000978 -0.999999
184.861785888672 329.486785888672 20.929702758789 0.000978 0.000978 -0.999999
170.376312255859 274.785858154297 20.929700851440 0.000978 0.000978 -0.999999
176.446655273438 267.992309570313 20.929698944092 0.000978 0.000978 -0.999999
176.011886596680 295.141387939453 20.929700851440 0.000978 0.000978 -0.999999
170.002639770508 255.239562988281 20.929698944092 0.000978 0.000978 -0.999999
167.465026855469 228.466979980469 20.929697036743 0.000978 0.000978 -0.999999
161.084106445313 250.570068359375 20.929698944092 0.000978 0.000978 -0.999999
161.962356567383 259.682678222656 20.929698944092 0.000978 0.000978 -0.999999
166.938980102539 221.674743652344 20.929697036743 0.000978 0.000978 -0.999999
168.467437744141 320.296844482422 20.929702758789 0.000978 0.000978 -0.999999
167.915344238281 232.272827148438 20.929697036743 0.000978 0.000978 -0.999999
169.300857543945 293.228668212891 20.929700851440 0.000978 0.000978 -0.999999
165.027343750000 234.261718750000 20.929697036743 0.000978 0.000978 -0.999999
169.015304565430 234.625762939453 20.929697036743 0.000978 0.000978 -0.999999
167.780166625977 239.329833984375 20.929697036743 0.000978 0.000978 -0.999999
162.191116333008 241.499969482422 20.929698944092 0.000978 0.000978 -0.999999
168.947174072266 330.775573730469 20.929702758789 0.000978 0.000978 -0.999999
168.090835571289 279.023651123047 20.929700851440 0.000978 0.000978 -0.999999
163.951492309570 236.207702636719 20.929698944092 0.000978 0.000978 -0.999999
162.724487304688 294.748016357422 20.929700851440 0.000978 0.000978 -0.999999
169.236145019531 256.668701171875 20.929698944092 0.000978 0.000978 -0.999999
161.415710449219 271.323394775391 20.929698944092 0.000978 0.000978 -0.999999
165.519439697266 295.419708251953 20.929700851440 0.000978 0.000978 -0.999999
169.268066406250 234.602508544922 20.929697036743 0.000978 0.000978 -0.999999
168.728546142578 320.575439453125 20.929702758789 0.000978 0.000978 -0.999999
161.630584716797 264.503570556641 20.929698944092 0.000978 0.000978 -0.999999
160.630630493164 247.564758300781 20.929698944092 0.000978 0.000978 -0.999999
163.927413940430 228.882354736328 20.929698944092 0.000978 0.000978 -0.999999
166.831787109375 211.193099975586 20.929697036743 0.000978 0.000978 -0.999999
160.989318847656 222.226867675781 20.929697036743 0.000978 0.000978 -0.999999
160.913833618164 157.772857666016 20.929695129395 0.000978 0.000978 -0.999999
158.246994018555 156.235412597656 20.929695129395 0.000978 0.000978 -0.999999
159.078445434570 138.180160522461 20.929693222046 0.000978 0.000978 -0.999999
162.974517822266 204.207519531250 20.929697036743 0.000978 0.000978 -0.999999
158.151687622070 169.096145629883 20.929695129395 0.000978 0.000978 -0.999999
163.176635742188 210.894500732422 20.929697036743 0.000978 0.000978 -0.999999
162.797882080078 179.917297363281 20.929695129395 0.000978 0.000978 -0.999999
164.837631225586 208.711715698242 20.929697036743 0.000978 0.000978 -0.999999
160.104507446289 172.732513427734 20.929697036743 0.000978 0.000978 -0.999999
162.416397094727 217.404785156250 20.929697036743 0.000978 0.000978 -0.999999
159.256851196289 145.485580444336 20.929693222046 0.000978 0.000978 -0.999999
162.390060424805 181.566955566406 20.929695129395 0.000978 0.000978 -0.999999
160.939361572266 210.090332031250 20.929697036743 0.000978 0.000978 -0.999999
158.347244262695 135.618499755859 20.929693222046 0.000978 0.000978 -0.999999
157.357391357422 159.064666748047 20.929695129395 0.000978 0.000978 -0.999999
157.561050415039 178.681945800781 20.929695129395 0.000978 0.000978 -0.999999
156.394561767578 185.784927368164 20.929695129395 0.000978 0.000978 -0.999999
157.360549926758 208.937606811523 20.929697036743 0.000978 0.000978 -0.999999
154.195022583008 156.149703979492 20.929695129395 0.000978 0.000978 -0.999999
153.664825439453 214.722366333008 20.929697036743 0.000978 0.000978 -0.999999
157.776840209961 191.470581054688 20.929695129395 0.000978 0.000978 -0.999999
153.630691528320 221.355926513672 20.929697036743 0.000978 0.000978 -0.999999
150.418212890625 190.412307739258 20.929697036743 0.000978 0.000978 -0.999999
156.221801757813 150.596832275391 20.929695129395 0.000978 0.000978 -0.999999
151.299057006836 196.674942016602 20.929697036743 0.000978 0.000978 -0.999999
153.892868041992 172.727371215820 20.929695129395 0.000978 0.000978 -0.999999
155.405075073242 157.696868896484 20.929695129395 0.000978 0.000978 -0.999999
155.530517578125 182.926498413086 20.929695129395 0.000978 0.000978 -0.999999
152.250564575195 214.240280151367 20.929697036743 0.000978 0.000978 -0.999999
156.368545532227 207.423995971680 20.929697036743 0.000978 0.000978 -0.999999
154.810165405273 153.149353027344 20.929695129395 0.000978 0.000978 -0.999999
149.478240966797 146.703002929688 20.929695129395 0.000978 0.000978 -0.999999
155.467468261719 123.624137878418 20.929693222046 0.000978 0.000978 -0.999999
149.578521728516 180.303924560547 20.929697036743 0.000978 0.000978 -0.999999
154.971817016602 140.148696899414 20.929693222046 0.000978 0.000978 -0.999999
152.988479614258 156.136962890625 20.929695129395 0.000978 0.000978 -0.999999
149.065795898438 169.383605957031 20.929695129395 0.000978 0.000978 -0.999999
151.764923095703 143.751861572266 20.929695129395 0.000978 0.000978 -0.999999
155.439483642578 138.937927246094 20.929693222046 0.000978 0.000978 -0.999999
150.095703125000 186.030075073242 20.929697036743 0.000978 0.000978 -0.999999
148.847610473633 131.353317260742 20.929693222046 0.000978 0.000978 -0.999999
146.066528320313 139.856964111328 20.929693222046 0.000978 0.000978 -0.999999
146.350769042969 161.323547363281 20.929695129395 0.000978 0.000978 -0.999999
147.043136596680 153.316436767578 20.929695129395 0.000978 0.000978 -0.999999
148.251632690430 163.331573486328 20.929695129395 0.000978 0.000978 -0.999999
148.401809692383 169.596282958984 20.929695129395 0.000978 0.000978 -0.999999
148.273025512695 175.596221923828 20.929695129395 0.000978 0.000978 -0.999999
144.269500732422 146.127487182617 20.929693222046 0.000978 0.000978 -0.999999
143.877227783203 127.350738525391 20.929693222046 0.000978 0.000978 -0.999999
141.817687988281 134.672836303711 20.929693222046 0.000978 0.000978 -0.999999
157.244079589844 -19.622125625610 20.929685592651 0.000978 0.000978 -0.999999
157.585113525391 -26.529174804688 20.929685592651 0.000978 0.000978 -0.999999
155.656433105469 -43.251548767090 20.929685592651 0.000978 0.000978 -0.999999
153.520019531250 -79.697769165039 20.929683685303 0.000978 0.000978 -0.999999
154.875320434570 -126.061126708984 20.929683685303 0.000978 0.000978 -0.999999
156.834182739258 -135.453491210938 20.929681777954 0.000978 0.000978 -0.999999
154.305709838867 -160.060470581055 20.929679870605 0.000978 0.000978 -0.999999
155.723510742188 -84.903953552246 20.929683685303 0.000978 0.000978 -0.999999
153.106170654297 -148.504837036133 20.929681777954 0.000978 0.000978 -0.999999
155.852661132813 -120.447082519531 20.929681777954 0.000978 0.000978 -0.999999
157.284576416016 -90.197296142578 20.929681777954 0.000978 0.000978 -0.999999
154.580993652344 -55.994235992432 20.929685592651 0.000978 0.000978 -0.999999
157.236297607422 -165.719650268555 20.929679870605 0.000978 0.000978 -0.999999
156.842880249023 -138.019515991211 20.929681777954 0.000978 0.000978 -0.999999
157.112686157227 -142.079544067383 20.929681777954 0.000978 0.000978 -0.999999
152.397842407227 -158.429336547852 20.929681777954 0.000978 0.000978 -0.999999
155.507812500000 -156.468704223633 20.929679870605 0.000978 0.000978 -0.999999
154.725494384766 -46.358871459961 20.929685592651 0.000978 0.000978 -0.999999
157.347274780273 -40.809726715088 20.929685592651 0.000978 0.000978 -0.999999
155.548233032227 -41.679027557373 20.929685592651 0.000978 0.000978 -0.999999
151.342178344727 -146.613967895508 20.929681777954 0.000978 0.000978 -0.999999
155.112899780273 -139.337066650391 20.929679870605 0.000978 0.000978 -0.999999
154.629501342773 -60.521678924561 20.929685592651 0.000978 0.000978 -0.999999
154.669021606445 -165.334045410156 20.929679870605 0.000978 0.000978 -0.999999
186.706192016602 -194.581634521484 20.929679870605 0.000978 0.000978 -0.999999
185.941329956055 -266.147796630859 20.929676055908 0.000978 0.000978 -0.999999
181.291671752930 -362.211120605469 20.929672241211 0.000978 0.000978 -0.999999
186.860046386719 -202.761291503906 20.929677963257 0.000978 0.000978 -0.999999
186.639923095703 -315.760894775391 20.929674148560 0.000978 0.000978 -0.999999
186.545074462891 -195.872894287109 20.929679870605 0.000978 0.000978 -0.999999
182.215911865234 -354.930053710938 20.929672241211 0.000978 0.000978 -0.999999
186.810302734375 -355.336090087891 20.929672241211 0.000978 0.000978 -0.999999
184.343780517578 -270.168731689453 20.929676055908 0.000978 0.000978 -0.999999
185.260314941406 -352.581512451172 20.929672241211 0.000978 0.000978 -0.999999
184.494155883789 -296.829254150391 20.929674148560 0.000978 0.000978 -0.999999
186.043640136719 -292.027984619141 20.929674148560 0.000978 0.000978 -0.999999
184.159606933594 -342.773010253906 20.929672241211 0.000978 0.000978 -0.999999
186.494033813477 -263.233123779297 20.929676055908 0.000978 0.000978 -0.999999
179.809295654297 -306.536651611328 20.929674148560 0.000978 0.000978 -0.999999
181.022537231445 -329.793212890625 20.929674148560 0.000978 0.000978 -0.999999
172.313735961914 -251.226806640625 20.929676055908 0.000978 0.000978 -0.999999
182.148895263672 -195.010543823242 20.929679870605 0.000978 0.000978 -0.999999
178.290328979492 -306.961761474609 20.929674148560 0.000978 0.000978 -0.999999
176.492980957031 -303.386657714844 20.929674148560 0.000978 0.000978 -0.999999
176.965454101563 -246.489105224609 20.929676055908 0.000978 0.000978 -0.999999
176.723846435547 -273.157775878906 20.929676055908 0.000978 0.000978 -0.999999
179.166183471680 -333.445861816406 20.929674148560 0.000978 0.000978 -0.999999
185.309890747070 -216.554260253906 20.929677963257 0.000978 0.000978 -0.999999
166.166076660156 -240.901916503906 20.929676055908 0.000978 0.000978 -0.999999
177.936096191406 -225.177810668945 20.929677963257 0.000978 0.000978 -0.999999
183.754455566406 -260.982727050781 20.929677963257 0.000978 0.000978 -0.999999
163.639312744141 -211.257858276367 20.929677963257 0.000978 0.000978 -0.999999
163.180343627930 -207.867019653320 20.929677963257 0.000978 0.000978 -0.999999
180.528869628906 -232.547302246094 20.929677963257 0.000978 0.000978 -0.999999
169.634536743164 -208.433761596680 20.929677963257 0.000978 0.000978 -0.999999
170.567565917969 -262.730133056641 20.929676055908 0.000978 0.000978 -0.999999
172.409973144531 -196.420532226563 20.929677963257 0.000978 0.000978 -0.999999
174.961959838867 -218.351867675781 20.929677963257 0.000978 0.000978 -0.999999
178.478103637695 -294.212524414063 20.929674148560 0.000978 0.000978 -0.999999
183.650848388672 -253.558929443359 20.929677963257 0.000978 0.000978 -0.999999
164.115844726563 -220.607879638672 20.929677963257 0.000978 0.000978 -0.999999
169.145660400391 -213.137771606445 20.929677963257 0.000978 0.000978 -0.999999
177.037185668945 -247.391311645508 20.929676055908 0.000978 0.000978 -0.999999
167.616302490234 -210.198272705078 20.929677963257 0.000978 0.000978 -0.999999
165.591064453125 -236.051864624023 20.929676055908 0.000978 0.000978 -0.999999
179.964736938477 -344.000152587891 20.929672241211 0.000978 0.000978 -0.999999
177.810882568359 -211.978103637695 20.929679870605 0.000978 0.000978 -0.999999
168.125122070313 -225.627014160156 20.929677963257 0.000978 0.000978 -0.999999
173.368225097656 -285.133209228516 20.929674148560 0.000978 0.000978 -0.999999
172.434738159180 -304.947509765625 20.929674148560 0.000978 0.000978 -0.999999
180.750442504883 -215.795639038086 20.929677963257 0.000978 0.000978 -0.999999
170.025360107422 -266.153259277344 20.929676055908 0.000978 0.000978 -0.999999
176.770599365234 -329.951660156250 20.929674148560 0.000978 0.000978 -0.999999
181.608673095703 -229.611206054688 20.929677963257 0.000978 0.000978 -0.999999
168.539016723633 -232.898834228516 20.929676055908 0.000978 0.000978 -0.999999
177.217651367188 -216.862930297852 20.929679870605 0.000978 0.000978 -0.999999
173.396957397461 -247.053054809570 20.929676055908 0.000978 0.000978 -0.999999
162.696395874023 -225.128845214844 20.929677963257 0.000978 0.000978 -0.999999
172.872039794922 -269.618896484375 20.929676055908 0.000978 0.000978 -0.999999
174.691207885742 -231.925292968750 20.929676055908 0.000978 0.000978 -0.999999
179.731658935547 -269.298919677734 20.929676055908 0.000978 0.000978 -0.999999
170.437255859375 -277.688842773438 20.929676055908 0.000978 0.000978 -0.999999
172.286224365234 -262.873596191406 20.929676055908 0.000978 0.000978 -0.999999
174.239212036133 -288.195251464844 20.929674148560 0.000978 0.000978 -0.999999
163.017730712891 -238.690246582031 20.929676055908 0.000978 0.000978 -0.999999
178.961288452148 -220.451873779297 20.929677963257 0.000978 0.000978 -0.999999
179.729904174805 -246.426544189453 20.929676055908 0.000978 0.000978 -0.999999
176.594589233398 -286.117919921875 20.929674148560 0.000978 0.000978 -0.999999
176.843750000000 -211.400924682617 20.929679870605 0.000978 0.000978 -0.999999
170.926345825195 -261.340454101563 20.929676055908 0.000978 0.000978 -0.999999
164.978622436523 -236.203506469727 20.929676055908 0.000978 0.000978 -0.999999
170.145538330078 -208.333633422852 20.929677963257 0.000978 0.000978 -0.999999
174.489913940430 -296.476440429688 20.929674148560 0.000978 0.000978 -0.999999
173.760955810547 -223.913482666016 20.929676055908 0.000978 0.000978 -0.999999
179.125991821289 -296.585968017578 20.929674148560 0.000978 0.000978 -0.999999
182.138305664063 -271.832519531250 20.929676055908 0.000978 0.000978 -0.999999
182.049240112305 -190.112136840820 20.929679870605 0.000978 0.000978 -0.999999
179.723281860352 -249.373199462891 20.929676055908 0.000978 0.000978 -0.999999
181.232666015625 -296.058868408203 20.929674148560 0.000978 0.000978 -0.999999
171.555358886719 -216.971496582031 20.929677963257 0.000978 0.000978 -0.999999
166.763397216797 -250.382720947266 20.929676055908 0.000978 0.000978 -0.999999
164.073226928711 -208.556762695313 20.929677963257 0.000978 0.000978 -0.999999
177.515670776367 -276.304473876953 20.929676055908 0.000978 0.000978 -0.999999
164.918380737305 -237.823043823242 20.929676055908 0.000978 0.000978 -0.999999
182.203353881836 -230.244400024414 20.929677963257 0.000978 0.000978 -0.999999
179.768737792969 -323.382843017578 20.929674148560 0.000978 0.000978 -0.999999
179.418457031250 -294.566284179688 20.929674148560 0.000978 0.000978 -0.999999
172.231338500977 -221.869415283203 20.929677963257 0.000978 0.000978 -0.999999
164.070144653320 -247.373001098633 20.929676055908 0.000978 0.000978 -0.999999
168.168014526367 -190.323379516602 20.929679870605 0.000978 0.000978 -0.999999
164.060256958008 -189.913436889648 20.929679870605 0.000978 0.000978 -0.999999
173.932769775391 -179.518554687500 20.929679870605 0.000978 0.000978 -0.999999
166.409103393555 -200.634185791016 20.929677963257 0.000978 0.000978 -0.999999
165.049438476563 -199.319625854492 20.929677963257 0.000978 0.000978 -0.999999
176.636077880859 -178.952865600586 20.929679870605 0.000978 0.000978 -0.999999
171.898162841797 -194.194702148438 20.929679870605 0.000978 0.000978 -0.999999
159.587631225586 -188.613113403320 20.929679870605 0.000978 0.000978 -0.999999
162.856872558594 -189.347366333008 20.929679870605 0.000978 0.000978 -0.999999
167.889328002930 -187.528289794922 20.929679870605 0.000978 0.000978 -0.999999
169.818038940430 -197.140121459961 20.929677963257 0.000978 0.000978 -0.999999
171.263122558594 -183.140060424805 20.929679870605 0.000978 0.000978 -0.999999
161.706420898438 -189.845977783203 20.929679870605 0.000978 0.000978 -0.999999
155.791427612305 -190.800292968750 20.929679870605 0.000978 0.000978 -0.999999
154.481277465820 -186.076354980469 20.929679870605 0.000978 0.000978 -0.999999
151.988296508789 -167.763549804688 20.929681777954 0.000978 0.000978 -0.999999
154.746139526367 -176.959320068359 20.929679870605 0.000978 0.000978 -0.999999
203.841323852539 -346.673828125000 20.929672241211 0.000978 0.000978 -0.999999
198.026397705078 -356.993865966797 20.929672241211 0.000978 0.000978 -0.999999
196.346847534180 -358.944183349609 20.929672241211 0.000978 0.000978 -0.999999
205.150619506836 -343.801727294922 20.929672241211 0.000978 0.000978 -0.999999
203.369537353516 -350.227111816406 20.929672241211 0.000978 0.000978 -0.999999
193.706100463867 -360.970947265625 20.929672241211 0.000978 0.000978 -0.999999
208.037460327148 -356.029602050781 20.929672241211 0.000978 0.000978 -0.999999
195.965637207031 -309.614257812500 20.929674148560 0.000978 0.000978 -0.999999
190.151336669922 -204.703811645508 20.929679870605 0.000978 0.000978 -0.999999
203.682891845703 -337.856506347656 20.929672241211 0.000978 0.000978 -0.999999
192.667419433594 -284.720031738281 20.929676055908 0.000978 0.000978 -0.999999
191.068008422852 -302.872833251953 20.929674148560 0.000978 0.000978 -0.999999
189.655136108398 -240.261611938477 20.929677963257 0.000978 0.000978 -0.999999
195.484954833984 -240.810623168945 20.929677963257 0.000978 0.000978 -0.999999
206.338562011719 -339.724548339844 20.929672241211 0.000978 0.000978 -0.999999
193.846359252930 -330.911224365234 20.929674148560 0.000978 0.000978 -0.999999
202.989257812500 -342.685089111328 20.929672241211 0.000978 0.000978 -0.999999
192.757247924805 -317.615814208984 20.929674148560 0.000978 0.000978 -0.999999
190.732528686523 -305.000671386719 20.929674148560 0.000978 0.000978 -0.999999
192.806533813477 -322.167236328125 20.929674148560 0.000978 0.000978 -0.999999
191.320419311523 -282.206634521484 20.929674148560 0.000978 0.000978 -0.999999
199.118148803711 -277.659210205078 20.929676055908 0.000978 0.000978 -0.999999
192.847656250000 -352.663024902344 20.929672241211 0.000978 0.000978 -0.999999
195.288131713867 -340.266601562500 20.929672241211 0.000978 0.000978 -0.999999
194.506530761719 -350.426208496094 20.929674148560 0.000978 0.000978 -0.999999
187.824493408203 -316.307556152344 20.929674148560 0.000978 0.000978 -0.999999
197.500595092773 -255.894912719727 20.929676055908 0.000978 0.000978 -0.999999
198.701797485352 -344.253967285156 20.929672241211 0.000978 0.000978 -0.999999
202.324035644531 -344.787780761719 20.929672241211 0.000978 0.000978 -0.999999
187.570831298828 -350.745178222656 20.929672241211 0.000978 0.000978 -0.999999
199.461898803711 -341.604248046875 20.929674148560 0.000978 0.000978 -0.999999
192.373565673828 -329.376953125000 20.929674148560 0.000978 0.000978 -0.999999
194.087249755859 -346.207061767578 20.929674148560 0.000978 0.000978 -0.999999
195.555770874023 -321.214172363281 20.929672241211 0.000978 0.000978 -0.999999
194.381896972656 -227.793685913086 20.929677963257 0.000978 0.000978 -0.999999
199.451095581055 -337.268676757813 20.929674148560 0.000978 0.000978 -0.999999
204.639343261719 -324.128692626953 20.929674148560 0.000978 0.000978 -0.999999
192.926879882813 -240.875762939453 20.929676055908 0.000978 0.000978 -0.999999
192.484252929688 -218.900131225586 20.929677963257 0.000978 0.000978 -0.999999
188.538070678711 -286.104492187500 20.929676055908 0.000978 0.000978 -0.999999
194.088272094727 -236.952117919922 20.929677963257 0.000978 0.000978 -0.999999
202.231124877930 -325.090942382813 20.929672241211 0.000978 0.000978 -0.999999
190.306488037109 -202.990921020508 20.929679870605 0.000978 0.000978 -0.999999
189.014678955078 -333.844970703125 20.929674148560 0.000978 0.000978 -0.999999
190.005233764648 -287.368286132813 20.929676055908 0.000978 0.000978 -0.999999
196.974121093750 -349.635406494141 20.929672241211 0.000978 0.000978 -0.999999
188.832870483398 -251.787811279297 20.929677963257 0.000978 0.000978 -0.999999
190.035537719727 -287.364715576172 20.929676055908 0.000978 0.000978 -0.999999
189.285095214844 -328.860717773438 20.929674148560 0.000978 0.000978 -0.999999
201.113067626953 -297.119842529297 20.929674148560 0.000978 0.000978 -0.999999
187.541503906250 -351.837951660156 20.929672241211 0.000978 0.000978 -0.999999
191.122650146484 -329.272155761719 20.929672241211 0.000978 0.000978 -0.999999
203.902511596680 -330.160308837891 20.929672241211 0.000978 0.000978 -0.999999
189.853271484375 -225.132263183594 20.929677963257 0.000978 0.000978 -0.999999
198.179229736328 -276.549072265625 20.929676055908 0.000978 0.000978 -0.999999
188.804336547852 -340.947387695313 20.929674148560 0.000978 0.000978 -0.999999
194.759552001953 -247.721893310547 20.929677963257 0.000978 0.000978 -0.999999
194.095870971680 -232.444824218750 20.929677963257 0.000978 0.000978 -0.999999
187.841094970703 -257.059295654297 20.929676055908 0.000978 0.000978 -0.999999
195.679122924805 -299.029296875000 20.929674148560 0.000978 0.000978 -0.999999
196.917755126953 -285.876708984375 20.929674148560 0.000978 0.000978 -0.999999
187.531600952148 -189.264602661133 20.929679870605 0.000978 0.000978 -0.999999
187.081863403320 -210.406784057617 20.929677963257 0.000978 0.000978 -0.999999
186.867553710938 -315.921630859375 20.929674148560 0.000978 0.000978 -0.999999
186.980957031250 -242.872329711914 20.929677963257 0.000978 0.000978 -0.999999
174.854141235352 -177.843414306641 20.929679870605 0.000978 0.000978 -0.999999
173.045654296875 -177.871215820313 20.929679870605 0.000978 0.000978 -0.999999
182.544021606445 -169.078948974609 20.929679870605 0.000978 0.000978 -0.999999
174.447036743164 -173.183044433594 20.929679870605 0.000978 0.000978 -0.999999
186.205932617188 -168.475662231445 20.929679870605 0.000978 0.000978 -0.999999
164.538879394531 -114.298782348633 20.929683685303 0.000978 0.000978 -0.999999
167.562973022461 -45.110580444336 20.929685592651 0.000978 0.000978 -0.999999
170.764633178711 -88.063507080078 20.929683685303 0.000978 0.000978 -0.999999
167.788269042969 -173.199920654297 20.929679870605 0.000978 0.000978 -0.999999
165.598861694336 -132.009857177734 20.929681777954 0.000978 0.000978 -0.999999
177.847686767578 -124.553512573242 20.929681777954 0.000978 0.000978 -0.999999
168.325759887695 -67.432479858398 20.929685592651 0.000978 0.000978 -0.999999
171.114425659180 -170.586791992188 20.929679870605 0.000978 0.000978 -0.999999
168.139053344727 -109.606994628906 20.929681777954 0.000978 0.000978 -0.999999
176.098907470703 -133.040786743164 20.929681777954 0.000978 0.000978 -0.999999
177.702438354492 -107.818923950195 20.929683685303 0.000978 0.000978 -0.999999
159.401382446289 -154.428253173828 20.929681777954 0.000978 0.000978 -0.999999
161.862121582031 -151.051803588867 20.929681777954 0.000978 0.000978 -0.999999
175.839462280273 -134.008117675781 20.929681777954 0.000978 0.000978 -0.999999
166.692031860352 -130.852951049805 20.929681777954 0.000978 0.000978 -0.999999
164.134780883789 -139.903106689453 20.929679870605 0.000978 0.000978 -0.999999
