//X Y Z Nx Ny Nz
616
57.479240417480 -23.189834594727 -2.061886787415 0.000978 -0.999999 0.000978
76.150993347168 -23.189834594727 -8.490077972412 0.000978 -0.999999 0.000978
-20.823242187500 -23.189834594727 -8.666100502014 0.000978 -0.999999 0.000978
129.026016235352 -23.189834594727 -3.844729423523 0.000978 -0.999999 0.000978
-96.648712158203 -23.189834594727 -11.012161254883 0.000978 -0.999999 0.000978
21.397293090820 -23.189834594727 -1.897526741028 0.000978 -0.999999 0.000978
60.511566162109 -23.189834594727 -5.727434158325 0.000978 -0.999999 0.000978
-35.558090209961 -23.189834594727 -8.028095245361 0.000978 -0.999999 0.000978
113.270896911621 -23.189834594727 -3.222249031067 0.000978 -0.999999 0.000978
118.031196594238 -23.189834594727 -7.200467586517 0.000978 -0.999999 0.000978
-97.337478637695 -23.189834594727 -9.371494293213 0.000978 -0.999999 0.000978
39.433219909668 -23.189834594727 -4.038394927979 0.000978 -0.999999 0.000978
104.734336853027 -23.189834594727 -1.679436683655 0.000978 -0.999999 0.000978
111.095687866211 -23.189834594727 -0.388980865479 0.000978 -0.999999 0.000978
69.288101196289 -23.189834594727 1.614321708679 0.000978 -0.999999 0.000978
-20.864151000977 -23.189834594727 -4.034068107605 0.000978 -0.999999 0.000978
-38.039886474609 -23.189834594727 -11.312768936157 0.000978 -0.999999 0.000978
46.240158081055 -23.189834594727 -10.158176422119 0.000978 -0.999999 0.000978
-81.086486816406 -23.189834594727 -10.731608390808 0.000978 -0.999999 0.000978
97.874877929688 -23.189834594727 2.708905220032 0.000978 -0.999999 0.000978
-31.715713500977 -23.189834594727 -4.283683776855 0.000978 -0.999999 0.000978
122.961196899414 -23.189834594727 -1.340924263000 0.000978 -0.999999 0.000978
97.842674255371 -23.189834594727 -2.953929901123 0.000978 -0.999999 0.000978
111.092636108398 -23.189834594727 5.112385749817 0.000978 -0.999999 0.000978
-48.174667358398 -23.189834594727 -8.788287162781 0.000978 -0.999999 0.000978
120.546928405762 -23.189834594727 -9.974756240845 0.000978 -0.999999 0.000978
97.642318725586 -23.189834594727 2.423704147339 0.000978 -0.999999 0.000978
117.361038208008 -23.189834594727 -6.100306510925 0.000978 -0.999999 0.000978
7.461425781250 -23.189834594727 -3.716365337372 0.000978 -0.999999 0.000978
107.115997314453 -23.189834594727 -8.260253906250 0.000978 -0.999999 0.000978
90.962310791016 -23.189834594727 -11.077589035034 0.000978 -0.999999 0.000978
98.864242553711 -23.189834594727 -3.099030494690 0.000978 -0.999999 0.000978
44.239944458008 -23.189834594727 -1.838479042053 0.000978 -0.999999 0.000978
25.443611145020 -23.189834594727 -10.502808570862 0.000978 -0.999999 0.000978
40.432418823242 -23.189834594727 -6.213616371155 0.000978 -0.999999 0.000978
70.178550720215 -23.189834594727 -8.780878067017 0.000978 -0.999999 0.000978
122.208465576172 -23.189834594727 3.373585700989 0.000978 -0.999999 0.000978
109.563880920410 -23.189834594727 1.077824592590 0.000978 -0.999999 0.000978
121.909942626953 -23.189834594727 -8.604764938354 0.000978 -0.999999 0.000978
65.957649230957 -23.189834594727 -5.955613613129 0.000978 -0.999999 0.000978
94.194351196289 -23.189834594727 4.941922187805 0.000978 -0.999999 0.000978
47.008735656738 -23.189834594727 -2.091869354248 0.000978 -0.999999 0.000978
3.032928466797 -23.189834594727 -2.815573692322 0.000978 -0.999999 0.000978
124.958869934082 -23.189834594727 -10.441705703735 0.000978 -0.999999 0.000978
18.102951049805 -23.189834594727 -2.727038383484 0.000978 -0.999999 0.000978
17.237312316895 -23.189834594727 -9.379138946533 0.000978 -0.999999 0.000978
-6.559295654297 -23.189834594727 -7.652053833008 0.000978 -0.999999 0.000978
-9.748855590820 -23.189834594727 -9.657445907593 0.000978 -0.999999 0.000978
-127.529891967773 -23.189834594727 -11.270599365234 0.000978 -0.999999 0.000978
80.880264282227 -23.189834594727 3.702506065369 0.000978 -0.999999 0.000978
-41.713363647461 -23.189834594727 -11.159714698792 0.000978 -0.999999 0.000978
26.869499206543 -23.189834594727 -2.862610816956 0.000978 -0.999999 0.000978
114.884201049805 -23.189834594727 -10.135913848877 0.000978 -0.999999 0.000978
98.583847045898 -23.189834594727 4.020184516907 0.000978 -0.999999 0.000978
3.096771240234 -23.189834594727 -2.338940620422 0.000978 -0.999999 0.000978
-6.422576904297 -23.189834594727 -8.658862113953 0.000978 -0.999999 0.000978
54.520950317383 -23.189834594727 -0.073600769043 0.000978 -0.999999 0.000978
130.691390991211 -23.189834594727 -10.669007301331 0.000978 -0.999999 0.000978
73.584503173828 -23.189834594727 0.671252250671 0.000978 -0.999999 0.000978
-44.729827880859 -23.189834594727 -5.152282714844 0.000978 -0.999999 0.000978
99.300521850586 -23.189834594727 -4.197708606720 0.000978 -0.999999 0.000978
78.038635253906 -23.189834594727 0.070704460144 0.000978 -0.999999 0.000978
72.921783447266 -23.189834594727 -6.931582927704 0.000978 -0.999999 0.000978
16.711952209473 -23.189834594727 -10.094136238098 0.000978 -0.999999 0.000978
-22.254882812500 -23.189834594727 -6.414156913757 0.000978 -0.999999 0.000978
134.929092407227 -23.189834594727 7.679366111755 0.000978 -0.999999 0.000978
102.567779541016 -23.189834594727 1.317119598389 0.000978 -0.999999 0.000978
88.157058715820 -23.189834594727 0.965319633484 0.000978 -0.999999 0.000978
-22.501800537109 -23.189834594727 -7.607872009277 0.000978 -0.999999 0.000978
-13.839477539063 -23.189834594727 -4.239870548248 0.000978 -0.999999 0.000978
55.551292419434 -23.189834594727 -10.370235443115 0.000978 -0.999999 0.000978
29.239730834961 -23.189834594727 -1.269683837891 0.000978 -0.999999 0.000978
-28.733337402344 -23.189834594727 -8.650827407837 0.000978 -0.999999 0.000978
134.886627197266 -23.189834594727 4.838137626648 0.000978 -0.999999 0.000978
29.384887695313 -23.189834594727 -8.980200767517 0.000978 -0.999999 0.000978
73.934677124023 -23.189834594727 2.302840232849 0.000978 -0.999999 0.000978
91.584548950195 -23.189834594727 4.331248283386 0.000978 -0.999999 0.000978
70.676261901855 -23.189834594727 -8.168529510498 0.000978 -0.999999 0.000978
80.838180541992 -23.189834594727 -3.770703315735 0.000978 -0.999999 0.000978
122.325134277344 -23.189834594727 6.896403312683 0.000978 -0.999999 0.000978
-40.098846435547 -23.189834594727 -8.102256774902 0.000978 -0.999999 0.000978
96.753433227539 -23.189834594727 2.397900581360 0.000978 -0.999999 0.000978
32.344802856445 -23.189834594727 -0.017786026001 0.000978 -0.999999 0.000978
-52.276458740234 -23.189834594727 -7.636219501495 0.000978 -0.999999 0.000978
3.388351440430 -23.189834594727 -3.741160392761 0.000978 -0.999999 0.000978
121.779670715332 -23.189834594727 -1.318961143494 0.000978 -0.999999 0.000978
102.429389953613 -23.189834594727 -10.142750740051 0.000978 -0.999999 0.000978
50.955162048340 -23.189834594727 -0.822997093201 0.000978 -0.999999 0.000978
39.984878540039 -23.189834594727 -6.693253993988 0.000978 -0.999999 0.000978
9.774162292480 -23.189834594727 -4.385492324829 0.000978 -0.999999 0.000978
-25.177490234375 -23.189834594727 -6.029148101807 0.000978 -0.999999 0.000978
-6.898788452148 -23.189834594727 -8.318843841553 0.000978 -0.999999 0.000978
52.069145202637 -23.189834594727 -3.295362472534 0.000978 -0.999999 0.000978
117.451332092285 -23.189834594727 -10.751690864563 0.000978 -0.999999 0.000978
-25.557739257813 -23.189834594727 -3.463979244232 0.000978 -0.999999 0.000978
70.107315063477 -23.189834594727 -4.426263332367 0.000978 -0.999999 0.000978
127.931373596191 -23.189834594727 5.214367866516 0.000978 -0.999999 0.000978
-13.489227294922 -23.189834594727 -10.969444274902 0.000978 -0.999999 0.000978
92.494171142578 -23.189834594727 5.086876869202 0.000978 -0.999999 0.000978
101.246200561523 -23.189834594727 -7.784638404846 0.000978 -0.999999 0.000978
106.100799560547 -23.189834594727 -1.055360794067 0.000978 -0.999999 0.000978
3.441970825195 -23.189834594727 -5.977869987488 0.000978 -0.999999 0.000978
-35.278503417969 -23.189834594727 -10.241139411926 0.000978 -0.999999 0.000978
-24.965576171875 -23.189834594727 -5.501316070557 0.000978 -0.999999 0.000978
-17.436798095703 -23.189834594727 -4.676239967346 0.000978 -0.999999 0.000978
75.437698364258 -23.189834594727 -0.109598159790 0.000978 -0.999999 0.000978
-45.026184082031 -23.189834594727 -7.535027503967 0.000978 -0.999999 0.000978
-37.787200927734 -23.189834594727 -9.703052520752 0.000978 -0.999999 0.000978
23.118789672852 -23.189834594727 -0.733719825745 0.000978 -0.999999 0.000978
53.800811767578 -23.189834594727 0.248022079468 0.000978 -0.999999 0.000978
-4.637252807617 -23.189834594727 -9.526745796204 0.000978 -0.999999 0.000978
23.200973510742 -23.189834594727 -3.576487541199 0.000978 -0.999999 0.000978
110.886543273926 -23.189834594727 -7.421646118164 0.000978 -0.999999 0.000978
3.866333007813 -23.189834594727 -2.209710121155 0.000978 -0.999999 0.000978
98.820968627930 -23.189834594727 -2.332285881042 0.000978 -0.999999 0.000978
91.852302551270 -23.189834594727 -4.514857769012 0.000978 -0.999999 0.000978
93.350097656250 -23.189834594727 -8.697035789490 0.000978 -0.999999 0.000978
53.287597656250 -23.189834594727 -10.173707008362 0.000978 -0.999999 0.000978
44.834678649902 -23.189834594727 0.831573486328 0.000978 -0.999999 0.000978
106.470291137695 -23.189834594727 -0.994536399841 0.000978 -0.999999 0.000978
13.841339111328 -23.189834594727 -8.170570373535 0.000978 -0.999999 0.000978
-35.496093750000 -23.189834594727 -6.939136028290 0.000978 -0.999999 0.000978
44.407714843750 -23.189834594727 -7.856008529663 0.000978 -0.999999 0.000978
114.094299316406 -23.189834594727 1.388112068176 0.000978 -0.999999 0.000978
29.574790954590 -23.189834594727 -4.307164192200 0.000978 -0.999999 0.000978
-14.468353271484 -23.189834594727 -9.108167648315 0.000978 -0.999999 0.000978
131.407913208008 -23.189834594727 -4.982321739197 0.000978 -0.999999 0.000978
-74.279693603516 -23.189834594727 -11.275611877441 0.000978 -0.999999 0.000978
-77.138854980469 -23.189834594727 -10.467778205872 0.000978 -0.999999 0.000978
-93.355758666992 -23.189834594727 -9.805887222290 0.000978 -0.999999 0.000978
46.009986877441 -23.189834594727 -7.725322246552 0.000978 -0.999999 0.000978
46.012336730957 -23.189834594727 -11.174248695374 0.000978 -0.999999 0.000978
12.768791198730 -23.189834594727 -10.037908554077 0.000978 -0.999999 0.000978
132.080459594727 -23.189834594727 2.957009315491 0.000978 -0.999999 0.000978
114.463897705078 -23.189834594727 3.945253372192 0.000978 -0.999999 0.000978
115.217292785645 -23.189834594727 -9.349925041199 0.000978 -0.999999 0.000978
-0.473983764648 -23.189834594727 -8.780767440796 0.000978 -0.999999 0.000978
-7.903182983398 -23.189834594727 -5.650433540344 0.000978 -0.999999 0.000978
82.548339843750 -23.189834594727 -6.042560100555 0.000978 -0.999999 0.000978
26.876892089844 -23.189834594727 -10.932545661926 0.000978 -0.999999 0.000978
82.293655395508 -23.189834594727 1.992664337158 0.000978 -0.999999 0.000978
83.410919189453 -23.189834594727 1.121477127075 0.000978 -0.999999 0.000978
94.568634033203 -23.189834594727 3.491717338562 0.000978 -0.999999 0.000978
-11.555282592773 -23.189834594727 -2.882019042969 0.000978 -0.999999 0.000978
134.230972290039 -23.189834594727 -1.889344215393 0.000978 -0.999999 0.000978
3.558898925781 -23.189834594727 -9.601043701172 0.000978 -0.999999 0.000978
18.335746765137 -23.189834594727 -10.510271072388 0.000978 -0.999999 0.000978
-22.423049926758 -23.189834594727 -7.366271972656 0.000978 -0.999999 0.000978
115.319869995117 -23.189834594727 1.947467803955 0.000978 -0.999999 0.000978
-50.431930541992 -23.189834594727 -10.763146400452 0.000978 -0.999999 0.000978
0.793289184570 -23.189834594727 -8.869226455688 0.000978 -0.999999 0.000978
72.894241333008 -23.189834594727 -7.932108402252 0.000978 -0.999999 0.000978
132.988464355469 -23.189834594727 -10.300385475159 0.000978 -0.999999 0.000978
7.007194519043 -23.189834594727 -8.172124862671 0.000978 -0.999999 0.000978
134.743865966797 -23.189834594727 6.700736045837 0.000978 -0.999999 0.000978
127.304611206055 -23.189834594727 -0.392828941345 0.000978 -0.999999 0.000978
-63.409622192383 -23.189834594727 -7.364461421967 0.000978 -0.999999 0.000978
115.208930969238 -23.189834594727 -2.900478363037 0.000978 -0.999999 0.000978
105.884765625000 -23.189834594727 -2.755000114441 0.000978 -0.999999 0.000978
-6.606323242188 -23.189834594727 -6.137465000153 0.000978 -0.999999 0.000978
-22.431121826172 -23.189834594727 -7.744341850281 0.000978 -0.999999 0.000978
79.586959838867 -23.189834594727 1.490363121033 0.000978 -0.999999 0.000978
119.080909729004 -23.189834594727 -7.128905773163 0.000978 -0.999999 0.000978
-1.728927612305 -23.189834594727 -2.498948097229 0.000978 -0.999999 0.000978
-9.156692504883 -23.189834594727 -4.454846382141 0.000978 -0.999999 0.000978
117.332221984863 -23.189834594727 -4.544539928436 0.000978 -0.999999 0.000978
134.865509033203 -23.189834594727 -2.819198608398 0.000978 -0.999999 0.000978
63.019775390625 -23.189834594727 -2.713809013367 0.000978 -0.999999 0.000978
-45.110427856445 -23.189834594727 -10.822791099548 0.000978 -0.999999 0.000978
98.906845092773 -23.189834594727 -6.186423301697 0.000978 -0.999999 0.000978
-94.090270996094 -23.189834594727 -9.996348381042 0.000978 -0.999999 0.000978
26.822982788086 -23.189834594727 -3.269232749939 0.000978 -0.999999 0.000978
61.629600524902 -23.189834594727 -7.731009006500 0.000978 -0.999999 0.000978
-94.715148925781 -23.189834594727 -8.715593338013 0.000978 -0.999999 0.000978
74.209716796875 -23.189834594727 -4.654630661011 0.000978 -0.999999 0.000978
82.642623901367 -23.189834594727 -1.968323707581 0.000978 -0.999999 0.000978
-24.149597167969 -23.189834594727 -7.222889900208 0.000978 -0.999999 0.000978
-17.931762695313 -23.189834594727 -3.075354576111 0.000978 -0.999999 0.000978
25.504333496094 -23.189834594727 -4.436110496521 0.000978 -0.999999 0.000978
55.785034179688 -23.189834594727 -9.847506523132 0.000978 -0.999999 0.000978
113.835708618164 -23.189834594727 -7.679811477661 0.000978 -0.999999 0.000978
-17.144027709961 -23.189834594727 -5.191105842590 0.000978 -0.999999 0.000978
85.350639343262 -23.189834594727 -7.112028121948 0.000978 -0.999999 0.000978
-59.218750000000 -23.189834594727 -8.262771606445 0.000978 -0.999999 0.000978
37.547996520996 -23.189834594727 -11.307073593140 0.000978 -0.999999 0.000978
110.923545837402 -23.189834594727 -6.694065093994 0.000978 -0.999999 0.000978
3.891830444336 -23.189834594727 -2.103702545166 0.000978 -0.999999 0.000978
65.455963134766 -23.189834594727 -5.360024929047 0.000978 -0.999999 0.000978
92.439483642578 -23.189834594727 1.330708503723 0.000978 -0.999999 0.000978
23.798507690430 -23.189834594727 -10.896702766418 0.000978 -0.999999 0.000978
94.481445312500 -23.189834594727 1.866605758667 0.000978 -0.999999 0.000978
117.921051025391 -23.189834594727 0.102462768555 0.000978 -0.999999 0.000978
87.651443481445 -23.189834594727 -6.138445854187 0.000978 -0.999999 0.000978
27.527236938477 -23.189834594727 -0.965189933777 0.000978 -0.999999 0.000978
18.164497375488 -23.189834594727 -4.140299797058 0.000978 -0.999999 0.000978
-33.830688476563 -23.189834594727 -9.360828399658 0.000978 -0.999999 0.000978
109.404907226563 -23.189834594727 -10.849425315857 0.000978 -0.999999 0.000978
47.644645690918 -23.189834594727 -7.613344192505 0.000978 -0.999999 0.000978
-21.908950805664 -23.189834594727 -5.944110870361 0.000978 -0.999999 0.000978
83.006401062012 -23.189834594727 -5.473016738892 0.000978 -0.999999 0.000978
76.918815612793 -23.189834594727 -11.362200737000 0.000978 -0.999999 0.000978
21.439102172852 -23.189834594727 -1.896713256836 0.000978 -0.999999 0.000978
86.134727478027 -23.189834594727 -10.179634094238 0.000978 -0.999999 0.000978
-19.468368530273 -23.189834594727 -3.483376502991 0.000978 -0.999999 0.000978
75.605377197266 -23.189834594727 -3.899085044861 0.000978 -0.999999 0.000978
90.350769042969 -23.189834594727 -2.736550331116 0.000978 -0.999999 0.000978
29.064392089844 -23.189834594727 -7.943121433258 0.000978 -0.999999 0.000978
120.426567077637 -23.189834594727 -3.556538581848 0.000978 -0.999999 0.000978
98.278839111328 -23.189834594727 -3.893533229828 0.000978 -0.999999 0.000978
96.467796325684 -23.189834594727 -3.989015579224 0.000978 -0.999999 0.000978
75.595657348633 -23.189834594727 -2.136215209961 0.000978 -0.999999 0.000978
47.516372680664 -23.189834594727 -5.834269523621 0.000978 -0.999999 0.000978
118.293312072754 -23.189834594727 -7.594659805298 0.000978 -0.999999 0.000978
86.251678466797 -23.189834594727 -9.254583358765 0.000978 -0.999999 0.000978
-34.402893066406 -23.189834594727 -9.029516220093 0.000978 -0.999999 0.000978
75.359199523926 -23.189834594727 -7.641917228699 0.000978 -0.999999 0.000978
106.961654663086 -23.189834594727 -3.539712905884 0.000978 -0.999999 0.000978
34.498512268066 -23.189834594727 -7.125773429871 0.000978 -0.999999 0.000978
71.067565917969 -23.189834594727 -5.285645961761 0.000978 -0.999999 0.000978
-14.982177734375 -23.189834594727 -5.711874961853 0.000978 -0.999999 0.000978
-72.340270996094 -23.189834594727 -8.668870925903 0.000978 -0.999999 0.000978
100.552124023438 -23.189834594727 -10.871662139893 0.000978 -0.999999 0.000978
97.725250244141 -23.189834594727 -1.342167854309 0.000978 -0.999999 0.000978
-109.489730834961 -23.189834594727 -10.801569938660 0.000978 -0.999999 0.000978
109.008323669434 -23.189834594727 -4.908417224884 0.000978 -0.999999 0.000978
2.956527709961 -23.189834594727 -6.555396080017 0.000978 -0.999999 0.000978
72.594207763672 -23.189834594727 -0.802903175354 0.000978 -0.999999 0.000978
74.142173767090 -23.189834594727 2.983803749084 0.000978 -0.999999 0.000978
-9.001663208008 -23.189834594727 -9.268617630005 0.000978 -0.999999 0.000978
85.852203369141 -23.189834594727 2.746633529663 0.000978 -0.999999 0.000978
-90.286911010742 -23.189834594727 -9.567045211792 0.000978 -0.999999 0.000978
82.291000366211 -23.189834594727 -0.221392631531 0.000978 -0.999999 0.000978
-23.907119750977 -23.189834594727 -7.472465515137 0.000978 -0.999999 0.000978
-96.991500854492 -23.189834594727 -9.526721954346 0.000978 -0.999999 0.000978
112.560867309570 -23.189834594727 -6.477110862732 0.000978 -0.999999 0.000978
-68.779464721680 -23.189834594727 -6.590302467346 0.000978 -0.999999 0.000978
97.446533203125 -23.189834594727 -3.457042217255 0.000978 -0.999999 0.000978
99.035346984863 -23.189834594727 5.005681037903 0.000978 -0.999999 0.000978
62.768028259277 -23.189834594727 -4.764625549316 0.000978 -0.999999 0.000978
38.345840454102 -23.189834594727 -0.805250167847 0.000978 -0.999999 0.000978
32.715965270996 -23.189834594727 -7.169874191284 0.000978 -0.999999 0.000978
67.197242736816 -23.189834594727 2.121099472046 0.000978 -0.999999 0.000978
0.845321655273 -23.189834594727 -5.735156059265 0.000978 -0.999999 0.000978
21.390342712402 -23.189834594727 -4.870420455933 0.000978 -0.999999 0.000978
19.857604980469 -23.189834594727 -0.174050331116 0.000978 -0.999999 0.000978
134.750488281250 -23.189834594727 6.711352348328 0.000978 -0.999999 0.000978
35.369712829590 -23.189834594727 -4.565212249756 0.000978 -0.999999 0.000978
22.722579956055 -23.189834594727 -4.116203308105 0.000978 -0.999999 0.000978
-10.781524658203 -23.189834594727 -4.122097969055 0.000978 -0.999999 0.000978
-86.687805175781 -23.189834594727 -8.587114334106 0.000978 -0.999999 0.000978
114.773490905762 -23.189834594727 -0.245328903198 0.000978 -0.999999 0.000978
-7.543548583984 -23.189834594727 -2.658171653748 0.000978 -0.999999 0.000978
4.514495849609 -23.189834594727 -1.661946296692 0.000978 -0.999999 0.000978
80.248291015625 -23.189834594727 -5.012854099274 0.000978 -0.999999 0.000978
116.438514709473 -23.189834594727 -10.826450347900 0.000978 -0.999999 0.000978
51.253715515137 -23.189834594727 -11.124060630798 0.000978 -0.999999 0.000978
127.075111389160 -23.189834594727 -9.337877273560 0.000978 -0.999999 0.000978
-80.769210815430 -23.189834594727 -8.048837661743 0.000978 -0.999999 0.000978
96.155426025391 -23.189834594727 -3.671060562134 0.000978 -0.999999 0.000978
113.946083068848 -23.189834594727 -8.513016700745 0.000978 -0.999999 0.000978
-83.235671997070 -23.189834594727 -9.174362182617 0.000978 -0.999999 0.000978
50.741630554199 -23.189834594727 1.634514808655 0.000978 -0.999999 0.000978
13.551460266113 -23.189834594727 -7.460736274719 0.000978 -0.999999 0.000978
5.772140502930 -23.189834594727 -4.330947875977 0.000978 -0.999999 0.000978
-17.015274047852 -23.189834594727 -8.407564163208 0.000978 -0.999999 0.000978
16.414001464844 -23.189834594727 -6.185299396515 0.000978 -0.999999 0.000978
61.533340454102 -23.189834594727 -7.972434043884 0.000978 -0.999999 0.000978
27.373695373535 -23.189834594727 -8.995239257813 0.000978 -0.999999 0.000978
25.597496032715 -23.189834594727 -9.684333801270 0.000978 -0.999999 0.000978
81.654937744141 -23.189834594727 -2.473593711853 0.000978 -0.999999 0.000978
-22.041168212891 -23.189834594727 -6.229146003723 0.000978 -0.999999 0.000978
51.092720031738 -23.189834594727 -8.978034973145 0.000978 -0.999999 0.000978
-4.005798339844 -23.189834594727 -7.344899177551 0.000978 -0.999999 0.000978
106.098983764648 -23.189834594727 6.259751319885 0.000978 -0.999999 0.000978
-62.589630126953 -23.189834594727 -10.553184509277 0.000978 -0.999999 0.000978
38.576393127441 -23.189834594727 -5.376267910004 0.000978 -0.999999 0.000978
86.878631591797 -23.189834594727 -10.340556144714 0.000978 -0.999999 0.000978
83.444610595703 -23.189834594727 -9.686392784119 0.000978 -0.999999 0.000978
120.302726745605 -23.189834594727 6.638619422913 0.000978 -0.999999 0.000978
129.559326171875 -23.189834594727 -3.223697662354 0.000978 -0.999999 0.000978
-80.427658081055 -23.189834594727 -8.128232955933 0.000978 -0.999999 0.000978
78.423774719238 -23.189834594727 -1.101922035217 0.000978 -0.999999 0.000978
2.814208984375 -23.189834594727 -1.407301902771 0.000978 -0.999999 0.000978
43.545684814453 -23.189834594727 -4.623496055603 0.000978 -0.999999 0.000978
11.166412353516 -23.189834594727 -3.665812969208 0.000978 -0.999999 0.000978
77.072570800781 -23.189834594727 -9.145122528076 0.000978 -0.999999 0.000978
51.005500793457 -23.189834594727 -2.166357040405 0.000978 -0.999999 0.000978
47.529548645020 -23.189834594727 -9.251887321472 0.000978 -0.999999 0.000978
97.332565307617 -23.189834594727 -3.475874423981 0.000978 -0.999999 0.000978
-2.720169067383 -23.189834594727 -8.680089950562 0.000978 -0.999999 0.000978
-70.766067504883 -23.189834594727 -9.176046371460 0.000978 -0.999999 0.000978
129.636413574219 -23.189834594727 4.237557411194 0.000978 -0.999999 0.000978
122.152992248535 -23.189834594727 -7.799646377563 0.000978 -0.999999 0.000978
94.780288696289 -23.189834594727 -7.662168979645 0.000978 -0.999999 0.000978
-3.850753784180 -23.189834594727 -8.597118377686 0.000978 -0.999999 0.000978
-5.133529663086 -23.189834594727 -3.606883049011 0.000978 -0.999999 0.000978
72.521499633789 -23.189834594727 -10.843424797058 0.000978 -0.999999 0.000978
65.794013977051 -23.189834594727 -0.821125030518 0.000978 -0.999999 0.000978
26.946365356445 -23.189834594727 -8.162038803101 0.000978 -0.999999 0.000978
113.305488586426 -23.189834594727 5.085337638855 0.000978 -0.999999 0.000978
28.615234375000 -23.189834594727 -9.903455734253 0.000978 -0.999999 0.000978
87.354293823242 -23.189834594727 -2.786263465881 0.000978 -0.999999 0.000978
21.310577392578 -23.189834594727 -1.706274986267 0.000978 -0.999999 0.000978
134.689422607422 -23.189834594727 7.938878059387 0.000978 -0.999999 0.000978
2.991516113281 -23.189834594727 -10.131674766541 0.000978 -0.999999 0.000978
60.204948425293 -23.189834594727 -8.148639678955 0.000978 -0.999999 0.000978
81.269424438477 -23.189834594727 -1.577644348145 0.000978 -0.999999 0.000978
67.463142395020 -23.189834594727 -3.127717971802 0.000978 -0.999999 0.000978
-62.601211547852 -23.189834594727 -6.053691387177 0.000978 -0.999999 0.000978
-58.666687011719 -23.189834594727 -6.593174934387 0.000978 -0.999999 0.000978
24.577697753906 -23.189834594727 -10.070377349854 0.000978 -0.999999 0.000978
95.667617797852 -23.189834594727 -9.579555511475 0.000978 -0.999999 0.000978
15.357109069824 -23.189834594727 -4.949356079102 0.000978 -0.999999 0.000978
-10.414184570313 -23.189834594727 -6.020201206207 0.000978 -0.999999 0.000978
132.356369018555 -23.189834594727 6.460587501526 0.000978 -0.999999 0.000978
-8.099716186523 -23.189834594727 -9.402667999268 0.000978 -0.999999 0.000978
119.803787231445 -23.189834594727 -4.128136634827 0.000978 -0.999999 0.000978
64.156768798828 -23.189834594727 -2.646545410156 0.000978 -0.999999 0.000978
0.225570678711 -23.189834594727 -11.065252304077 0.000978 -0.999999 0.000978
33.180091857910 -23.189834594727 -1.790348052979 0.000978 -0.999999 0.000978
123.868690490723 -23.189834594727 3.460589408875 0.000978 -0.999999 0.000978
45.986541748047 -23.189834594727 -10.403946876526 0.000978 -0.999999 0.000978
131.577239990234 -23.189834594727 -4.563977241516 0.000978 -0.999999 0.000978
-68.227203369141 -23.189834594727 -8.385247230530 0.000978 -0.999999 0.000978
-19.444152832031 -23.189834594727 -7.640297889709 0.000978 -0.999999 0.000978
63.814750671387 -23.189834594727 -5.237785816193 0.000978 -0.999999 0.000978
109.675262451172 -23.189834594727 -1.355752944946 0.000978 -0.999999 0.000978
92.064285278320 -23.189834594727 1.539383888245 0.000978 -0.999999 0.000978
33.876113891602 -23.189834594727 0.735967636108 0.000978 -0.999999 0.000978
-51.293365478516 -23.189834594727 -5.718499183655 0.000978 -0.999999 0.000978
-14.492843627930 -23.189834594727 -10.351778030396 0.000978 -0.999999 0.000978
67.120613098145 -23.189834594727 -8.059569358826 0.000978 -0.999999 0.000978
-19.010421752930 -23.189834594727 -7.594728469849 0.000978 -0.999999 0.000978
79.783142089844 -23.189834594727 0.179692268372 0.000978 -0.999999 0.000978
55.733818054199 -23.189834594727 -5.101495265961 0.000978 -0.999999 0.000978
122.270767211914 -23.189834594727 -10.997030258179 0.000978 -0.999999 0.000978
120.603553771973 -23.189834594727 -5.729534149170 0.000978 -0.999999 0.000978
80.647811889648 -23.189834594727 4.400713920593 0.000978 -0.999999 0.000978
123.183418273926 -23.189834594727 -3.340586662292 0.000978 -0.999999 0.000978
1.181625366211 -23.189834594727 -3.243683815002 0.000978 -0.999999 0.000978
-73.272155761719 -23.189834594727 -11.199543952942 0.000978 -0.999999 0.000978
-45.520721435547 -23.189834594727 -9.994394302368 0.000978 -0.999999 0.000978
86.183128356934 -23.189834594727 -2.049344062805 0.000978 -0.999999 0.000978
74.553283691406 -23.189834594727 -6.038506507874 0.000978 -0.999999 0.000978
117.358680725098 -23.189834594727 2.192180633545 0.000978 -0.999999 0.000978
-82.541534423828 -23.189834594727 -7.684466362000 0.000978 -0.999999 0.000978
47.427070617676 -23.189834594727 -0.428873062134 0.000978 -0.999999 0.000978
127.492820739746 -23.189834594727 7.155997276306 0.000978 -0.999999 0.000978
73.143981933594 -23.189834594727 -9.569228172302 0.000978 -0.999999 0.000978
-64.277587890625 -23.189834594727 -10.555933952332 0.000978 -0.999999 0.000978
69.311386108398 -23.189834594727 -5.001791954041 0.000978 -0.999999 0.000978
27.154365539551 -23.189834594727 -8.707221984863 0.000978 -0.999999 0.000978
43.984947204590 -23.189834594727 -6.432800292969 0.000978 -0.999999 0.000978
104.233047485352 -23.189834594727 -9.943732261658 0.000978 -0.999999 0.000978
104.910598754883 -23.189834594727 -8.419986724854 0.000978 -0.999999 0.000978
-92.161834716797 -23.189834594727 -10.011658668518 0.000978 -0.999999 0.000978
130.782241821289 -23.189834594727 3.297362327576 0.000978 -0.999999 0.000978
79.839500427246 -23.189834594727 -0.825879096985 0.000978 -0.999999 0.000978
89.915359497070 -23.189834594727 2.936128616333 0.000978 -0.999999 0.000978
-93.589309692383 -23.189834594727 -10.409873962402 0.000978 -0.999999 0.000978
68.416038513184 -23.189834594727 2.723019599915 0.000978 -0.999999 0.000978
58.822952270508 -23.189834594727 -6.309906959534 0.000978 -0.999999 0.000978
101.729202270508 -23.189834594727 -2.807618141174 0.000978 -0.999999 0.000978
96.191993713379 -23.189834594727 -11.204452514648 0.000978 -0.999999 0.000978
-39.583328247070 -23.189834594727 -8.570652008057 0.000978 -0.999999 0.000978
5.048400878906 -23.189834594727 -5.651656627655 0.000978 -0.999999 0.000978
-60.486816406250 -23.189834594727 -10.074512481689 0.000978 -0.999999 0.000978
92.419326782227 -23.189834594727 4.518306732178 0.000978 -0.999999 0.000978
-0.176971435547 -23.189834594727 -2.770206451416 0.000978 -0.999999 0.000978
36.200172424316 -23.189834594727 -4.709726810455 0.000978 -0.999999 0.000978
50.354461669922 -23.189834594727 -4.265767574310 0.000978 -0.999999 0.000978
86.375000000000 -23.189834594727 -1.878376007080 0.000978 -0.999999 0.000978
-60.610366821289 -23.189834594727 -8.447604179382 0.000978 -0.999999 0.000978
30.025840759277 -23.189834594727 -2.733042716980 0.000978 -0.999999 0.000978
7.722045898438 -23.189834594727 -2.243223190308 0.000978 -0.999999 0.000978
122.047523498535 -23.189834594727 5.437319755554 0.000978 -0.999999 0.000978
28.906509399414 -23.189834594727 -5.237745285034 0.000978 -0.999999 0.000978
89.209030151367 -23.189834594727 -4.421614170074 0.000978 -0.999999 0.000978
37.362464904785 -23.189834594727 -4.627576351166 0.000978 -0.999999 0.000978
111.525299072266 -23.189834594727 3.381804466248 0.000978 -0.999999 0.000978
9.860237121582 -23.189834594727 -10.166252136230 0.000978 -0.999999 0.000978
121.247840881348 -23.189834594727 -7.486048221588 0.000978 -0.999999 0.000978
-93.591735839844 -23.189834594727 -8.801439285278 0.000978 -0.999999 0.000978
132.830871582031 -23.189834594727 -10.983640670776 0.000978 -0.999999 0.000978
-9.241699218750 -23.189834594727 -11.157201766968 0.000978 -0.999999 0.000978
80.354736328125 -23.189834594727 -7.060053825378 0.000978 -0.999999 0.000978
109.871040344238 -23.189834594727 -3.744447708130 0.000978 -0.999999 0.000978
16.226806640625 -23.189834594727 -6.480343818665 0.000978 -0.999999 0.000978
104.144989013672 -23.189834594727 -10.997844696045 0.000978 -0.999999 0.000978
21.230354309082 -23.189834594727 -4.115785598755 0.000978 -0.999999 0.000978
97.661491394043 -23.189834594727 5.608149528503 0.000978 -0.999999 0.000978
-10.709854125977 -23.189834594727 -6.107790946960 0.000978 -0.999999 0.000978
80.556381225586 -23.189834594727 -11.269803047180 0.000978 -0.999999 0.000978
-99.049453735352 -23.189834594727 -9.551615715027 0.000978 -0.999999 0.000978
-78.467163085938 -23.189834594727 -10.671748161316 0.000978 -0.999999 0.000978
39.302017211914 -23.189834594727 -0.949656486511 0.000978 -0.999999 0.000978
32.098419189453 -23.189834594727 -5.585184097290 0.000978 -0.999999 0.000978
101.350845336914 -23.189834594727 0.192378044128 0.000978 -0.999999 0.000978
98.931045532227 -23.189834594727 4.635933876038 0.000978 -0.999999 0.000978
-27.413253784180 -23.189834594727 -9.944196701050 0.000978 -0.999999 0.000978
118.208747863770 -23.189834594727 -10.249402046204 0.000978 -0.999999 0.000978
-33.360366821289 -23.189834594727 -9.581093788147 0.000978 -0.999999 0.000978
42.117362976074 -23.189834594727 -9.341554641724 0.000978 -0.999999 0.000978
-86.106826782227 -23.189834594727 -9.929411888123 0.000978 -0.999999 0.000978
86.020301818848 -23.189834594727 -7.107802391052 0.000978 -0.999999 0.000978
-38.568801879883 -23.189834594727 -6.816892623901 0.000978 -0.999999 0.000978
-4.412963867188 -23.189834594727 -5.714711189270 0.000978 -0.999999 0.000978
73.508056640625 -23.189834594727 3.883242607117 0.000978 -0.999999 0.000978
-30.392272949219 -23.189834594727 -9.851223945618 0.000978 -0.999999 0.000978
132.389251708984 -23.189834594727 7.567307472229 0.000978 -0.999999 0.000978
99.484298706055 -23.189834594727 -1.591779708862 0.000978 -0.999999 0.000978
15.621368408203 -23.189834594727 -7.793816089630 0.000978 -0.999999 0.000978
124.235519409180 -23.189834594727 6.045256614685 0.000978 -0.999999 0.000978
135.000015258789 -10.364244461060 -0.646306812763 0.999999 0.000978 0.000978
135.000015258789 22.584100723267 -8.293863296509 0.999999 0.000978 0.000978
135.000015258789 -16.816272735596 -5.538495063782 0.999999 0.000978 0.000978
135.000015258789 -20.155220031738 -5.892940998077 0.999999 0.000978 0.000978
135.000015258789 -23.003128051758 6.145439147949 0.999999 0.000978 0.000978
135.000015258789 -22.324512481689 -7.937130451202 0.999999 0.000978 0.000978
135.000015258789 -22.729265213013 -6.287416458130 0.999999 0.000978 0.000978
135.000015258789 -22.893730163574 7.183156490326 0.999999 0.000978 0.000978
135.000015258789 -22.432960510254 -5.689682960510 0.999999 0.000978 0.000978
135.000015258789 -20.127275466919 -4.582195758820 0.999999 0.000978 0.000978
135.000015258789 -19.239391326904 -0.574908256531 0.999999 0.000978 0.000978
135.000015258789 -20.308387756348 -1.116036415100 0.999999 0.000978 0.000978
135.000015258789 -21.224540710449 -3.129257678986 0.999999 0.000978 0.000978
135.000015258789 -23.092473983765 2.650069713593 0.999999 0.000978 0.000978
135.000015258789 -22.924846649170 0.966584146023 0.999999 0.000978 0.000978
135.000015258789 -22.623039245605 2.084717035294 0.999999 0.000978 0.000978
135.000015258789 -20.924652099609 6.106308937073 0.999999 0.000978 0.000978
135.000015258789 11.042737007141 2.315525531769 0.999999 0.000978 0.000978
135.000015258789 13.209656715393 3.381908893585 0.999999 0.000978 0.000978
135.000015258789 -16.504564285278 -4.395573616028 0.999999 0.000978 0.000978
135.000015258789 -18.105772018433 -4.465599536896 0.999999 0.000978 0.000978
135.000015258789 -16.007820129395 2.346387624741 0.999999 0.000978 0.000978
135.000015258789 -16.133403778076 2.891027450562 0.999999 0.000978 0.000978
135.000015258789 -10.095009803772 1.371783494949 0.999999 0.000978 0.000978
135.000015258789 -4.819660186768 -0.519976139069 0.999999 0.000978 0.000978
135.000015258789 11.894825935364 3.813751220703 0.999999 0.000978 0.000978
135.000015258789 15.459792137146 -7.182014465332 0.999999 0.000978 0.000978
135.000015258789 9.504756927490 -4.576260566711 0.999999 0.000978 0.000978
135.000015258789 -18.747665405273 5.415736198425 0.999999 0.000978 0.000978
135.000015258789 -7.603878974915 1.098741173744 0.999999 0.000978 0.000978
135.000015258789 -8.661441802979 0.129049852490 0.999999 0.000978 0.000978
135.000015258789 6.830298423767 1.944257974625 0.999999 0.000978 0.000978
135.000015258789 7.681885719299 1.913920760155 0.999999 0.000978 0.000978
135.000015258789 14.424555778503 4.014173984528 0.999999 0.000978 0.000978
135.000015258789 -0.766057193279 -3.217165470123 0.999999 0.000978 0.000978
135.000015258789 -10.498467445374 -1.612726807594 0.999999 0.000978 0.000978
135.000015258789 -10.601297378540 -1.012875676155 0.999999 0.000978 0.000978
135.000015258789 -3.307790517807 -1.014428377151 0.999999 0.000978 0.000978
135.000015258789 -2.088923215866 -0.776283621788 0.999999 0.000978 0.000978
135.000015258789 -9.194705009460 -4.413850784302 0.999999 0.000978 0.000978
135.000015258789 18.229846954346 -9.644117355347 0.999999 0.000978 0.000978
135.000015258789 -0.598327636719 0.133597552776 0.999999 0.000978 0.000978
135.000015258789 -3.503282308578 -0.024006217718 0.999999 0.000978 0.000978
135.000015258789 -4.248150825500 0.020942762494 0.999999 0.000978 0.000978
135.000015258789 10.042186737061 -3.056808948517 0.999999 0.000978 0.000978
135.000015258789 17.126045227051 -7.851520061493 0.999999 0.000978 0.000978
135.000015258789 17.455760955811 -8.237355232239 0.999999 0.000978 0.000978
135.000015258789 -3.619943618774 -2.605675458908 0.999999 0.000978 0.000978
135.000015258789 -4.472965240479 -2.325412988663 0.999999 0.000978 0.000978
135.000015258789 -0.912225008011 -2.114763975143 0.999999 0.000978 0.000978
135.000015258789 5.236200809479 -4.579463005066 0.999999 0.000978 0.000978
135.000015258789 -7.209291458130 -2.815554857254 0.999999 0.000978 0.000978
135.000015258789 4.184247016907 -5.342630863190 0.999999 0.000978 0.000978
135.000015258789 0.818003654480 -3.914446353912 0.999999 0.000978 0.000978
135.000015258789 17.053241729736 -8.631422996521 0.999999 0.000978 0.000978
135.000015258789 0.770105361938 -5.040427684784 0.999999 0.000978 0.000978
135.000015258789 9.344082832336 -7.093259811401 0.999999 0.000978 0.000978
135.000015258789 5.724617004395 -5.718463897705 0.999999 0.000978 0.000978
135.000015258789 -4.426151752472 -4.285344123840 0.999999 0.000978 0.000978
135.000015258789 -5.237123966217 -4.023472309113 0.999999 0.000978 0.000978
135.000015258789 -0.189334928989 -5.680683135986 0.999999 0.000978 0.000978
135.000015258789 -4.472408771515 -4.711295127869 0.999999 0.000978 0.000978
135.000015258789 -5.174387931824 -4.631886959076 0.999999 0.000978 0.000978
135.000015258789 20.690311431885 -10.267097473145 0.999999 0.000978 0.000978
135.000015258789 -7.959697246552 -5.426437854767 0.999999 0.000978 0.000978
135.000015258789 5.085039615631 -10.776540756226 0.999999 0.000978 0.000978
135.000015258789 -13.238161087036 -7.772110939026 0.999999 0.000978 0.000978
135.000015258789 -18.581403732300 -9.273621559143 0.999999 0.000978 0.000978
135.000015258789 -17.639938354492 -9.323133468628 0.999999 0.000978 0.000978
135.000015258789 2.477416753769 -9.342203140259 0.999999 0.000978 0.000978
135.000015258789 -10.941531181335 -9.277413368225 0.999999 0.000978 0.000978
135.000015258789 0.323706626892 -7.018628597260 0.999999 0.000978 0.000978
135.000015258789 -11.405228614807 -8.044612884521 0.999999 0.000978 0.000978
135.000015258789 -13.676393508911 -5.882001876831 0.999999 0.000978 0.000978
135.000015258789 -2.690824508667 -7.155245304108 0.999999 0.000978 0.000978
135.000015258789 -7.732149124146 -11.208378791809 0.999999 0.000978 0.000978
135.000015258789 -9.608633995056 -7.272028923035 0.999999 0.000978 0.000978
135.000015258789 -10.182005882263 -6.600091934204 0.999999 0.000978 0.000978
135.000015258789 3.078527212143 -9.264588356018 0.999999 0.000978 0.000978
135.000015258789 -1.665099620819 -9.610601425171 0.999999 0.000978 0.000978
135.000015258789 6.417011260986 -8.127487182617 0.999999 0.000978 0.000978
135.000015258789 10.832855224609 -9.786535263062 0.999999 0.000978 0.000978
135.000015258789 -3.605289697647 -10.178378105164 0.999999 0.000978 0.000978
135.000015258789 -16.971401214600 -8.106745719910 0.999999 0.000978 0.000978
135.000015258789 -1.260599613190 -10.975319862366 0.999999 0.000978 0.000978
135.000015258789 0.162230014801 -7.146408557892 0.999999 0.000978 0.000978
135.000015258789 -12.948423385620 -6.563898563385 0.999999 0.000978 0.000978
135.000015258789 -16.580963134766 -7.863781929016 0.999999 0.000978 0.000978
135.000015258789 4.170315742493 -10.110442161560 0.999999 0.000978 0.000978
135.000015258789 19.354291915894 -10.954880714417 0.999999 0.000978 0.000978
135.000015258789 -8.330101013184 -8.028821945190 0.999999 0.000978 0.000978
135.000015258789 6.010254383087 -11.175252914429 0.999999 0.000978 0.000978
135.000015258789 -7.678305149078 -10.072484016418 0.999999 0.000978 0.000978
135.000015258789 -5.857568264008 -7.051319599152 0.999999 0.000978 0.000978
135.000015258789 -12.309257507324 -5.632477760315 0.999999 0.000978 0.000978
135.000015258789 -1.243638038635 -6.752493381500 0.999999 0.000978 0.000978
135.000015258789 -19.273817062378 -8.984848022461 0.999999 0.000978 0.000978
135.000015258789 8.367938995361 -9.006424903870 0.999999 0.000978 0.000978
135.000015258789 22.409170150757 -11.361328125000 0.999999 0.000978 0.000978
135.000015258789 9.868721961975 -9.461127281189 0.999999 0.000978 0.000978
135.000015258789 -10.849997520447 4.567724704742 0.999999 0.000978 0.000978
135.000015258789 -9.743069648743 2.489614486694 0.999999 0.000978 0.000978
135.000015258789 -8.446511268616 2.811872482300 0.999999 0.000978 0.000978
135.000015258789 -10.369659423828 2.570425033569 0.999999 0.000978 0.000978
135.000015258789 -14.314390182495 3.098326206207 0.999999 0.000978 0.000978
135.000015258789 -11.718786239624 3.538224220276 0.999999 0.000978 0.000978
135.000015258789 -15.958784103394 5.342595577240 0.999999 0.000978 0.000978
135.000015258789 -9.402490615845 2.927714347839 0.999999 0.000978 0.000978
135.000015258789 -15.265476226807 4.411808490753 0.999999 0.000978 0.000978
135.000015258789 -6.153098583221 3.304663896561 0.999999 0.000978 0.000978
135.000015258789 -1.541376113892 5.111396789551 0.999999 0.000978 0.000978
135.000015258789 12.234811782837 7.069944381714 0.999999 0.000978 0.000978
135.000015258789 1.613736152649 3.930006027222 0.999999 0.000978 0.000978
135.000015258789 5.415350914001 6.049482345581 0.999999 0.000978 0.000978
135.000015258789 -1.773990631104 2.313068866730 0.999999 0.000978 0.000978
135.000015258789 17.125783920288 5.855527877808 0.999999 0.000978 0.000978
135.000015258789 -3.785445213318 5.873172283173 0.999999 0.000978 0.000978
135.000015258789 5.151452064514 5.362327575684 0.999999 0.000978 0.000978
135.000015258789 -6.062441825867 6.059179782867 0.999999 0.000978 0.000978
135.000015258789 1.719205856323 1.558124065399 0.999999 0.000978 0.000978
135.000015258789 11.829965591431 6.755346298218 0.999999 0.000978 0.000978
135.000015258789 6.285779953003 3.661801338196 0.999999 0.000978 0.000978
135.000015258789 -2.390782356262 3.551701545715 0.999999 0.000978 0.000978
135.000015258789 10.302964210510 7.457614898682 0.999999 0.000978 0.000978
135.000015258789 6.501327514648 7.091231346130 0.999999 0.000978 0.000978
135.000015258789 10.408735275269 3.752078533173 0.999999 0.000978 0.000978
135.000015258789 -10.535264968872 7.696835041046 0.999999 0.000978 0.000978
135.000015258789 -1.420642852783 4.681547164917 0.999999 0.000978 0.000978
135.000015258789 11.602890968323 6.735384464264 0.999999 0.000978 0.000978
135.000015258789 -17.059030532837 7.636537551880 0.999999 0.000978 0.000978
135.000015258789 -7.525542259216 5.646759510040 0.999999 0.000978 0.000978
135.000015258789 11.080225944519 7.835076808929 0.999999 0.000978 0.000978
135.000015258789 10.225062370300 4.321341991425 0.999999 0.000978 0.000978
135.000015258789 -12.209907531738 7.112176418304 0.999999 0.000978 0.000978
135.000015258789 -6.375243186951 4.054667949677 0.999999 0.000978 0.000978
135.000015258789 -1.280658721924 3.822757720947 0.999999 0.000978 0.000978
135.000015258789 -4.551475524902 5.412364959717 0.999999 0.000978 0.000978
135.000015258789 0.056685209274 7.462721347809 0.999999 0.000978 0.000978
135.000015258789 -1.364459037781 4.151196002960 0.999999 0.000978 0.000978
135.000015258789 12.484315872192 7.218145847321 0.999999 0.000978 0.000978
135.000015258789 -4.149498939514 6.971135616302 0.999999 0.000978 0.000978
135.000015258789 -5.215227127075 5.690295219421 0.999999 0.000978 0.000978
135.000015258789 -5.070511817932 4.071314334869 0.999999 0.000978 0.000978
135.000015258789 17.759243011475 6.792308807373 0.999999 0.000978 0.000978
135.000015258789 -22.080619812012 8.361836433411 0.999999 0.000978 0.000978
135.000015258789 -1.835561752319 5.546730995178 0.999999 0.000978 0.000978
135.000015258789 -6.164863586426 5.461886882782 0.999999 0.000978 0.000978
135.000015258789 0.740156173706 3.935320377350 0.999999 0.000978 0.000978
135.000015258789 17.884689331055 8.008087158203 0.999999 0.000978 0.000978
135.000015258789 7.352525711060 3.789357185364 0.999999 0.000978 0.000978
135.000015258789 4.383405208588 1.598622083664 0.999999 0.000978 0.000978
135.000015258789 20.203212738037 3.554007053375 0.999999 0.000978 0.000978
135.000015258789 25.447793960571 -4.284689903259 0.999999 0.000978 0.000978
135.000015258789 24.020595550537 -2.185370445251 0.999999 0.000978 0.000978
135.000015258789 26.693664550781 -9.507564544678 0.999999 0.000978 0.000978
135.000015258789 22.319507598877 -0.242272377014 0.999999 0.000978 0.000978
135.000015258789 25.254722595215 4.349456310272 0.999999 0.000978 0.000978
135.000015258789 25.738204956055 5.661990165710 0.999999 0.000978 0.000978
135.000015258789 26.503597259521 5.008859157562 0.999999 0.000978 0.000978
135.000015258789 24.541866302490 -7.026784896851 0.999999 0.000978 0.000978
135.000015258789 22.972112655640 -2.985278606415 0.999999 0.000978 0.000978
135.000015258789 25.742401123047 0.472738146782 0.999999 0.000978 0.000978
135.000015258789 26.003543853760 3.373482465744 0.999999 0.000978 0.000978
135.000015258789 24.969781875610 4.433763504028 0.999999 0.000978 0.000978
135.000015258789 21.953128814697 -2.968700647354 0.999999 0.000978 0.000978
135.000015258789 22.253049850464 -9.112543106079 0.999999 0.000978 0.000978
135.000015258789 16.848688125610 -5.357752799988 0.999999 0.000978 0.000978
135.000015258789 20.042922973633 -8.096364974976 0.999999 0.000978 0.000978
135.000015258789 6.994245529175 -3.069000482559 0.999999 0.000978 0.000978
135.000015258789 13.046470642090 -5.163836479187 0.999999 0.000978 0.000978
135.000015258789 11.914552688599 -4.102780342102 0.999999 0.000978 0.000978
135.000015258789 20.874753952026 -8.788835525513 0.999999 0.000978 0.000978
135.000015258789 12.721588134766 -2.524196386337 0.999999 0.000978 0.000978
135.000015258789 13.716389656067 -2.189023017883 0.999999 0.000978 0.000978
135.000015258789 11.812623977661 0.567677497864 0.999999 0.000978 0.000978
135.000015258789 23.831193923950 5.413119316101 0.999999 0.000978 0.000978
135.000015258789 23.072925567627 3.818161487579 0.999999 0.000978 0.000978
135.000015258789 21.002187728882 0.584602355957 0.999999 0.000978 0.000978
135.000015258789 22.496530532837 1.129415512085 0.999999 0.000978 0.000978
135.000015258789 22.321748733521 -5.431323528290 0.999999 0.000978 0.000978
135.000015258789 22.986421585083 -7.081284046173 0.999999 0.000978 0.000978
135.000015258789 22.020025253296 -6.339910507202 0.999999 0.000978 0.000978
135.000015258789 24.894617080688 -9.571272850037 0.999999 0.000978 0.000978
135.000015258789 6.945331573486 -1.060436964035 0.999999 0.000978 0.000978
135.000015258789 8.904510498047 -1.555408120155 0.999999 0.000978 0.000978
135.000015258789 5.965671062469 -1.585717201233 0.999999 0.000978 0.000978
135.000015258789 11.361124992371 0.757895708084 0.999999 0.000978 0.000978
135.000015258789 21.690883636475 5.931499481201 0.999999 0.000978 0.000978
135.000015258789 15.638823509216 3.711920976639 0.999999 0.000978 0.000978
135.000015258789 21.039611816406 5.888166427612 0.999999 0.000978 0.000978
135.000015258789 17.723972320557 2.973415374756 0.999999 0.000978 0.000978
135.000015258789 6.824345111847 0.220158874989 0.999999 0.000978 0.000978
135.000015258789 21.732608795166 6.151389122009 0.999999 0.000978 0.000978
135.000015258789 17.679349899292 4.307120800018 0.999999 0.000978 0.000978
135.000015258789 17.986318588257 2.266076564789 0.999999 0.000978 0.000978
-94.282684326172 -3.305723190308 -11.364594459534 0.000978 0.000978 -0.999999
-97.956588745117 -7.122195243835 -11.364594459534 0.000978 0.000978 -0.999999
-72.477157592773 6.813924789429 -11.364593505859 0.000978 0.000978 -0.999999
59.292358398438 16.078966140747 -11.364593505859 0.000978 0.000978 -0.999999
-103.690498352051 7.942320346832 -11.364593505859 0.000978 0.000978 -0.999999
88.476684570313 19.865451812744 -11.364592552185 0.000978 0.000978 -0.999999
16.240661621094 23.765693664551 -11.364592552185 0.000978 0.000978 -0.999999
-31.718887329102 11.278724670410 -11.364592552185 0.000978 0.000978 -0.999999
