//X Y Z Nx Ny Nz
612
174.425567626953 472.939880371094 21.252285003662 0.992091 -0.125512 0.001091
176.085067749023 486.109619140625 25.399066925049 0.992091 -0.125512 0.001091
162.340621948242 377.034301757813 7.353456497192 0.992091 -0.125512 0.001091
162.685760498047 379.773254394531 10.293012619019 0.992091 -0.125512 0.001091
166.476989746094 409.860290527344 17.551382064819 0.992091 -0.125512 0.001091
142.832153320313 222.215728759766 28.264074325562 0.992091 -0.125512 0.001091
167.937438964844 421.450469970703 19.552627563477 0.992091 -0.125512 0.001091
165.762023925781 404.186462402344 7.638227462769 0.992091 -0.125512 0.001091
137.184265136719 177.394348144531 25.781568527222 0.992091 -0.125512 0.001091
141.152236938477 208.883926391602 24.412401199341 0.992091 -0.125512 0.001091
160.163833618164 359.759368896484 22.277002334595 0.992091 -0.125512 0.001091
159.891510009766 357.598205566406 11.222810745239 0.992091 -0.125512 0.001091
155.432968139648 322.215332031250 14.300466537476 0.992091 -0.125512 0.001091
131.422058105469 131.665649414063 27.851285934448 0.992091 -0.125512 0.001091
140.271713256836 201.896179199219 15.284848213196 0.992091 -0.125512 0.001091
148.233489990234 265.080474853516 28.426923751831 0.992091 -0.125512 0.001091
161.898529052734 373.525787353516 25.456663131714 0.992091 -0.125512 0.001091
144.555709838867 235.893920898438 15.618124961853 0.992091 -0.125512 0.001091
163.063659667969 382.772186279297 24.090522766113 0.992091 -0.125512 0.001091
174.498962402344 473.522338867188 18.908905029297 0.992091 -0.125512 0.001091
145.484100341797 243.261505126953 13.760966300964 0.992091 -0.125512 0.001091
160.180664062500 359.892883300781 25.499008178711 0.992091 -0.125512 0.001091
153.741668701172 308.793273925781 23.950473785400 0.992091 -0.125512 0.001091
148.130767822266 264.265350341797 11.573402404785 0.992091 -0.125512 0.001091
155.883316040039 325.789215087891 26.034957885742 0.992091 -0.125512 0.001091
164.395675659180 393.343017578125 23.669340133667 0.992091 -0.125512 0.001091
147.770019531250 261.402526855469 21.969814300537 0.992091 -0.125512 0.001091
159.387130737305 353.595458984375 25.550561904907 0.992091 -0.125512 0.001091
168.526260375977 426.123260498047 17.372116088867 0.992091 -0.125512 0.001091
149.273147583008 273.331298828125 8.237230300903 0.992091 -0.125512 0.001091
149.865997314453 278.036102294922 17.836338043213 0.992091 -0.125512 0.001091
129.009689331055 112.521087646484 25.821855545044 0.992091 -0.125512 0.001091
159.432128906250 353.952484130859 27.443138122559 0.992091 -0.125512 0.001091
146.693267822266 252.857376098633 11.739999771118 0.992091 -0.125512 0.001091
156.286926269531 328.992401123047 3.812953948975 0.992091 -0.125512 0.001091
153.274291992188 305.084197998047 20.726520538330 0.992091 -0.125512 0.001091
162.630722045898 379.336456298828 24.171352386475 0.992091 -0.125512 0.001091
152.596054077148 299.701751708984 10.025142669678 0.992091 -0.125512 0.001091
163.091522216797 382.993530273438 6.118276596069 0.992091 -0.125512 0.001091
136.461715698242 171.660125732422 25.560808181763 0.992091 -0.125512 0.001091
163.892440795898 389.349548339844 15.188323974609 0.992091 -0.125512 0.001091
133.548217773438 148.538833618164 22.488134384155 0.992091 -0.125512 0.001091
142.260696411133 217.680740356445 23.442821502686 0.992091 -0.125512 0.001091
145.883453369141 246.430740356445 25.944446563721 0.992091 -0.125512 0.001091
150.683105468750 284.520629882813 23.541748046875 0.992091 -0.125512 0.001091
170.025375366211 438.020172119141 15.731979370117 0.992091 -0.125512 0.001091
138.772705078125 189.999954223633 27.109489440918 0.992091 -0.125512 0.001091
153.029006958008 303.137573242188 25.043645858765 0.992091 -0.125512 0.001091
136.901977539063 175.153945922852 27.408094406128 0.992091 -0.125512 0.001091
159.439208984375 354.008789062500 19.523101806641 0.992091 -0.125512 0.001091
159.269577026367 352.662658691406 3.437194824219 0.992091 -0.125512 0.001091
153.764923095703 308.977722167969 24.779647827148 0.992091 -0.125512 0.001091
164.151657104492 391.406524658203 24.868972778320 0.992091 -0.125512 0.001091
153.957611083984 310.506927490234 10.346837997437 0.992091 -0.125512 0.001091
163.585968017578 386.917297363281 21.858770370483 0.992091 -0.125512 0.001091
167.965866088867 421.676025390625 13.587634086609 0.992091 -0.125512 0.001091
136.350418090820 170.776947021484 23.008369445801 0.992091 -0.125512 0.001091
155.930664062500 326.165100097656 7.364536285400 0.992091 -0.125512 0.001091
172.172088623047 455.056396484375 16.762069702148 0.992091 -0.125512 0.001091
169.270797729492 432.032012939453 17.263914108276 0.992091 -0.125512 0.001091
157.691848754883 340.141784667969 13.456029891968 0.992091 -0.125512 0.001091
163.657928466797 387.488311767578 25.795948028564 0.992091 -0.125512 0.001091
151.787475585938 293.284912109375 14.147281646729 0.992091 -0.125512 0.001091
160.402587890625 361.654174804688 3.994235992432 0.992091 -0.125512 0.001091
168.912017822266 429.184570312500 20.527603149414 0.992091 -0.125512 0.001091
170.204147338867 439.438964843750 14.081975936890 0.992091 -0.125512 0.001091
172.302307128906 456.089843750000 23.062057495117 0.992091 -0.125512 0.001091
159.611694335938 355.377624511719 14.136128425598 0.992091 -0.125512 0.001091
156.115188598633 327.629516601563 6.113018035889 0.992091 -0.125512 0.001091
148.225128173828 265.014160156250 20.048664093018 0.992091 -0.125512 0.001091
137.447921752930 179.486709594727 24.736070632935 0.992091 -0.125512 0.001091
152.671249389648 300.298400878906 23.490797042847 0.992091 -0.125512 0.001091
156.243957519531 328.651397705078 13.031586647034 0.992091 -0.125512 0.001091
159.501083374023 354.499755859375 26.662532806396 0.992091 -0.125512 0.001091
171.387435913086 448.829467773438 16.586601257324 0.992091 -0.125512 0.001091
146.104598999023 248.185714721680 21.386672973633 0.992091 -0.125512 0.001091
141.654785156250 212.872222900391 19.631553649902 0.992091 -0.125512 0.001091
155.323577880859 321.347351074219 10.661670684814 0.992091 -0.125512 0.001091
157.133087158203 335.707427978516 19.336822509766 0.992091 -0.125512 0.001091
158.728027343750 348.364837646484 8.616580963135 0.992091 -0.125512 0.001091
157.882812500000 341.657196044922 27.622831344604 0.992091 -0.125512 0.001091
167.772644042969 420.142700195313 12.712357521057 0.992091 -0.125512 0.001091
168.681549072266 427.355560302734 22.662023544312 0.992091 -0.125512 0.001091
135.539581298828 164.342132568359 19.920619964600 0.992091 -0.125512 0.001091
162.412170410156 377.602050781250 10.436252593994 0.992091 -0.125512 0.001091
169.614257812500 434.757568359375 23.273185729980 0.992091 -0.125512 0.001091
134.896591186523 159.239379882813 20.561897277832 0.992091 -0.125512 0.001091
164.294204711914 392.537902832031 14.440086364746 0.992091 -0.125512 0.001091
163.563964843750 386.742675781250 9.287883758545 0.992091 -0.125512 0.001091
139.415924072266 195.104614257813 18.429218292236 0.992091 -0.125512 0.001091
148.401687622070 266.415283203125 24.334287643433 0.992091 -0.125512 0.001091
175.089950561523 478.212493896484 19.243648529053 0.992091 -0.125512 0.001091
153.783569335938 309.125823974609 8.954692840576 0.992091 -0.125512 0.001091
139.139282226563 192.909255981445 19.657531738281 0.992091 -0.125512 0.001091
150.626068115234 284.068023681641 16.797138214111 0.992091 -0.125512 0.001091
143.736755371094 229.394638061523 21.802078247070 0.992091 -0.125512 0.001091
141.873168945313 214.605270385742 18.999416351318 0.992091 -0.125512 0.001091
157.264511108398 336.750518798828 7.748237609863 0.992091 -0.125512 0.001091
174.308273315430 472.009094238281 18.089290618896 0.992091 -0.125512 0.001091
154.396087646484 313.986785888672 2.932073593140 0.992091 -0.125512 0.001091
137.581924438477 180.550094604492 20.404788970947 0.992091 -0.125512 0.001091
151.881942749023 294.034515380859 28.521820068359 0.992091 -0.125512 0.001091
174.927383422852 476.922363281250 22.895198822021 0.992091 -0.125512 0.001091
173.895660400391 468.734588623047 19.489025115967 0.992091 -0.125512 0.001091
153.711837768555 308.556640625000 14.667872428894 0.992091 -0.125512 0.001091
170.412017822266 441.088500976563 20.958124160767 0.992091 -0.125512 0.001091
134.126693725586 153.129547119141 20.546678543091 0.992091 -0.125512 0.001091
154.425292968750 314.218383789063 27.541614532471 0.992091 -0.125512 0.001091
147.312438964844 257.771118164063 23.151340484619 0.992091 -0.125512 0.001091
162.861740112305 381.169799804688 11.652376174927 0.992091 -0.125512 0.001091
133.945648193359 151.692657470703 26.103521347046 0.992091 -0.125512 0.001091
149.809951782227 277.591217041016 22.248123168945 0.992091 -0.125512 0.001091
137.350875854492 178.716522216797 24.790830612183 0.992091 -0.125512 0.001091
150.521820068359 283.240722656250 23.161315917969 0.992091 -0.125512 0.001091
149.078475952148 271.786407470703 12.049163818359 0.992091 -0.125512 0.001091
169.520431518555 434.012969970703 12.803170204163 0.992091 -0.125512 0.001091
149.492095947266 275.068786621094 8.745220184326 0.992091 -0.125512 0.001091
161.622390747070 371.334411621094 24.774023056030 0.992091 -0.125512 0.001091
152.874114990234 301.908386230469 21.468225479126 0.992091 -0.125512 0.001091
163.042495727539 382.604339599609 27.385829925537 0.992091 -0.125512 0.001091
148.868347167969 270.118896484375 14.787680625916 0.992091 -0.125512 0.001091
148.197189331055 264.792602539063 10.038732528687 0.992091 -0.125512 0.001091
164.742233276367 396.093353271484 17.958889007568 0.992091 -0.125512 0.001091
172.722534179688 459.424713134766 16.412666320801 0.992091 -0.125512 0.001091
140.825546264648 206.291290283203 20.254673004150 0.992091 -0.125512 0.001091
157.013809204102 334.760925292969 1.177394866943 0.992091 -0.125512 0.001091
161.559814453125 370.837890625000 6.896888732910 0.992091 -0.125512 0.001091
157.755264282227 340.645080566406 5.255008697510 0.992091 -0.125512 0.001091
164.127685546875 391.216308593750 22.688760757446 0.992091 -0.125512 0.001091
172.986648559570 461.520629882813 12.571905136108 0.992091 -0.125512 0.001091
182.116012573242 533.970947265625 27.112016677856 0.992091 -0.125512 0.001091
163.490707397461 386.161163330078 -1.224589586258 0.992091 -0.125512 0.001091
166.016326904297 406.204498291016 7.197661399841 0.992091 -0.125512 0.001091
174.137756347656 470.655944824219 17.331623077393 0.992091 -0.125512 0.001091
161.688568115234 371.859558105469 0.565599799156 0.992091 -0.125512 0.001091
164.397796630859 393.359832763672 -1.116318702698 0.992091 -0.125512 0.001091
175.376510620117 480.486480712891 16.536952972412 0.992091 -0.125512 0.001091
166.991104125977 413.940277099609 4.565613269806 0.992091 -0.125512 0.001091
166.534835815430 410.319396972656 6.433319091797 0.992091 -0.125512 0.001091
165.127777099609 399.153106689453 1.584790468216 0.992091 -0.125512 0.001091
162.913040161133 381.576995849609 1.089349389076 0.992091 -0.125512 0.001091
168.727493286133 427.720184326172 7.991304397583 0.992091 -0.125512 0.001091
161.595138549805 371.118255615234 0.782805144787 0.992091 -0.125512 0.001091
160.773788452148 364.600036621094 -1.289898037910 0.992091 -0.125512 0.001091
163.220443725586 384.016448974609 -0.512642621994 0.992091 -0.125512 0.001091
180.235671997070 519.048706054688 24.692577362061 0.992091 -0.125512 0.001091
167.714111328125 419.677947998047 3.527412414551 0.992091 -0.125512 0.001091
173.685211181641 467.064392089844 14.041908264160 0.992091 -0.125512 0.001091
178.640243530273 506.387390136719 21.439447402954 0.992091 -0.125512 0.001091
169.556274414063 434.297332763672 7.835889816284 0.992091 -0.125512 0.001091
168.684722900391 427.380737304688 5.391908645630 0.992091 -0.125512 0.001091
164.435852050781 393.661956787109 0.199529469013 0.992091 -0.125512 0.001091
171.461105346680 449.414123535156 7.846331596375 0.992091 -0.125512 0.001091
175.816009521484 483.974365234375 15.249720573425 0.992091 -0.125512 0.001091
174.304977416992 471.982879638672 13.014502525330 0.992091 -0.125512 0.001091
171.653167724609 450.938201904297 9.295983314514 0.992091 -0.125512 0.001091
177.881118774414 500.362976074219 19.888963699341 0.992091 -0.125512 0.001091
172.230682373047 455.521392822266 9.484509468079 0.992091 -0.125512 0.001091
167.748901367188 419.954132080078 2.270526170731 0.992091 -0.125512 0.001091
169.010711669922 429.967681884766 3.860714912415 0.992091 -0.125512 0.001091
166.183807373047 407.533630371094 0.206156745553 0.992091 -0.125512 0.001091
180.199584960938 518.762329101563 18.984279632568 0.992091 -0.125512 0.001091
173.491882324219 465.530151367188 -0.010554313660 0.992091 -0.125512 0.001091
177.623214721680 498.316467285156 0.027610778809 0.992091 -0.125512 0.001091
182.070465087891 533.609558105469 24.316936492920 0.992091 -0.125512 0.001091
171.323348999023 448.320800781250 1.893629074097 0.992091 -0.125512 0.001091
179.669769287109 514.557617187500 19.784589767456 0.992091 -0.125512 0.001091
176.250747680664 487.424621582031 -1.118673324585 0.992091 -0.125512 0.001091
177.892440795898 500.452941894531 3.599559783936 0.992091 -0.125512 0.001091
172.439193725586 457.176116943359 4.444867134094 0.992091 -0.125512 0.001091
180.519256591797 521.299194335938 16.341667175293 0.992091 -0.125512 0.001091
173.083969116211 462.292999267578 4.280261993408 0.992091 -0.125512 0.001091
175.566818237305 481.996826171875 -1.177576065063 0.992091 -0.125512 0.001091
172.393890380859 456.816497802734 4.492478847504 0.992091 -0.125512 0.001091
178.498733520508 505.264434814453 12.414106369019 0.992091 -0.125512 0.001091
180.175064086914 518.567810058594 16.580619812012 0.992091 -0.125512 0.001091
178.311080932617 503.775268554688 10.422311782837 0.992091 -0.125512 0.001091
180.093521118164 517.920532226563 15.979900360107 0.992091 -0.125512 0.001091
176.827407836914 492.000885009766 5.740915298462 0.992091 -0.125512 0.001091
177.416839599609 496.678466796875 16.191141128540 0.992091 -0.125512 0.001091
180.363632202148 520.064147949219 20.068086624146 0.992091 -0.125512 0.001091
169.473037719727 433.636779785156 0.792149782181 0.992091 -0.125512 0.001091
176.616851806641 490.329956054688 -0.596961975098 0.992091 -0.125512 0.001091
178.259262084961 503.363983154297 16.205244064331 0.992091 -0.125512 0.001091
181.930374145508 532.497802734375 26.221847534180 0.992091 -0.125512 0.001091
173.187271118164 463.112762451172 6.580082893372 0.992091 -0.125512 0.001091
177.834304809570 499.991546630859 7.955615997314 0.992091 -0.125512 0.001091
179.201171875000 510.838989257813 8.456565856934 0.992091 -0.125512 0.001091
178.860427856445 508.134735107422 16.427591323853 0.992091 -0.125512 0.001091
173.871582031250 468.543457031250 9.465795516968 0.992091 -0.125512 0.001091
173.941436767578 469.097839355469 6.353514194489 0.992091 -0.125512 0.001091
178.342697143555 504.026184082031 12.788494110107 0.992091 -0.125512 0.001091
173.255447387695 463.653839111328 6.073837280273 0.992091 -0.125512 0.001091
176.975631713867 493.177185058594 2.384275436401 0.992091 -0.125512 0.001091
172.171463012695 455.051422119141 5.250818252563 0.992091 -0.125512 0.001091
180.281448364258 519.411987304688 19.223693847656 0.992091 -0.125512 0.001091
178.324050903320 503.878173828125 10.517984390259 0.992091 -0.125512 0.001091
170.643081665039 442.922149658203 0.658525943756 0.992091 -0.125512 0.001091
170.730331420898 443.614593505859 -0.206853866577 0.992091 -0.125512 0.001091
179.976791381836 516.994201660156 18.723556518555 0.992091 -0.125512 0.001091
182.246383666992 535.005554199219 25.509597778320 0.992091 -0.125512 0.001091
177.401046752930 496.553283691406 11.505809783936 0.992091 -0.125512 0.001091
180.626037597656 522.146606445313 13.490713119507 0.992091 -0.125512 0.001091
179.293899536133 511.574768066406 5.094466209412 0.992091 -0.125512 0.001091
181.933410644531 532.521911621094 20.664447784424 0.992091 -0.125512 0.001091
179.072875976563 509.820831298828 -1.153460383415 0.992091 -0.125512 0.001091
180.398834228516 520.343566894531 13.149499893188 0.992091 -0.125512 0.001091
180.085159301758 517.854187011719 7.042025089264 0.992091 -0.125512 0.001091
181.105682373047 525.953002929688 15.527076721191 0.992091 -0.125512 0.001091
180.952850341797 524.740295410156 6.090397834778 0.992091 -0.125512 0.001091
180.232345581055 519.022399902344 3.259369134903 0.992091 -0.125512 0.001091
181.227645874023 526.921081542969 12.610070228577 0.992091 -0.125512 0.001091
180.222747802734 518.946166992188 1.647796750069 0.992091 -0.125512 0.001091
181.068527221680 525.658264160156 10.826739311218 0.992091 -0.125512 0.001091
182.053787231445 533.477233886719 19.565408706665 0.992091 -0.125512 0.001091
180.650100708008 522.337707519531 6.183394432068 0.992091 -0.125512 0.001091
181.628585815430 530.102844238281 0.199661463499 0.992091 -0.125512 0.001091
182.979690551758 540.825073242188 5.443244457245 0.992091 -0.125512 0.001091
181.036392211914 525.403198242188 10.289841651917 0.992091 -0.125512 0.001091
182.525390625000 537.219909667969 23.463638305664 0.992091 -0.125512 0.001091
181.462173461914 528.782287597656 2.091885566711 0.992091 -0.125512 0.001091
181.988510131836 532.959167480469 17.951162338257 0.992091 -0.125512 0.001091
180.911041259766 524.408508300781 -1.113453626633 0.992091 -0.125512 0.001091
182.826217651367 539.607177734375 10.868271827698 0.992091 -0.125512 0.001091
124.952644348145 -3.863068103790 21.588424682617 0.999999 0.000978 0.000978
124.952644348145 9.031211853027 2.581984996796 0.999999 0.000978 0.000978
124.952644348145 9.620615959167 9.763346672058 0.999999 0.000978 0.000978
124.952644348145 24.567079544067 2.799068927765 0.999999 0.000978 0.000978
124.952644348145 2.725477218628 2.476914405823 0.999999 0.000978 0.000978
124.952644348145 -3.513001441956 16.794616699219 0.999999 0.000978 0.000978
124.952644348145 7.737430572510 -0.840268790722 0.999999 0.000978 0.000978
124.952644348145 1.850794792175 20.341764450073 0.999999 0.000978 0.000978
124.952644348145 4.346652984619 2.628878355026 0.999999 0.000978 0.000978
124.952644348145 -2.266405105591 -0.269579440355 0.999999 0.000978 0.000978
124.952644348145 6.529817581177 3.736179828644 0.999999 0.000978 0.000978
124.952644348145 17.193202972412 8.908349037170 0.999999 0.000978 0.000978
124.952644348145 1.752512931824 10.055144309998 0.999999 0.000978 0.000978
124.952644348145 11.754834175110 12.178007125854 0.999999 0.000978 0.000978
124.952644348145 19.396499633789 4.991241931915 0.999999 0.000978 0.000978
124.952644348145 1.079559326172 -0.123064689338 0.999999 0.000978 0.000978
124.952644348145 9.160776138306 7.171894073486 0.999999 0.000978 0.000978
124.952644348145 63.409416198730 19.931579589844 0.999999 0.000978 0.000978
124.952644348145 63.642654418945 24.110950469971 0.999999 0.000978 0.000978
124.952644348145 78.707397460938 27.948101043701 0.999999 0.000978 0.000978
124.952644348145 71.713035583496 25.315389633179 0.999999 0.000978 0.000978
124.952644348145 35.512794494629 23.613298416138 0.999999 0.000978 0.000978
124.952644348145 31.481712341309 5.582866668701 0.999999 0.000978 0.000978
124.952644348145 20.528701782227 17.242446899414 0.999999 0.000978 0.000978
124.952644348145 35.554412841797 12.181711196899 0.999999 0.000978 0.000978
124.952644348145 21.576490402222 25.054439544678 0.999999 0.000978 0.000978
124.952644348145 34.060665130615 21.601411819458 0.999999 0.000978 0.000978
124.952644348145 18.568778991699 17.041736602783 0.999999 0.000978 0.000978
124.952644348145 57.208580017090 19.811614990234 0.999999 0.000978 0.000978
124.952644348145 28.693101882935 26.526357650757 0.999999 0.000978 0.000978
124.952644348145 57.111030578613 25.321773529053 0.999999 0.000978 0.000978
124.952644348145 15.743152618408 15.212045669556 0.999999 0.000978 0.000978
124.952644348145 17.289989471436 19.761865615845 0.999999 0.000978 0.000978
124.952644348145 54.975410461426 21.405490875244 0.999999 0.000978 0.000978
124.952644348145 39.077892303467 16.848287582397 0.999999 0.000978 0.000978
124.952644348145 40.801177978516 7.878961563110 0.999999 0.000978 0.000978
124.952644348145 5.107920646667 20.360683441162 0.999999 0.000978 0.000978
124.952644348145 40.844696044922 10.537691116333 0.999999 0.000978 0.000978
124.952644348145 16.593847274780 16.364173889160 0.999999 0.000978 0.000978
124.952644348145 37.950969696045 16.114635467529 0.999999 0.000978 0.000978
124.952644348145 45.807765960693 16.982294082642 0.999999 0.000978 0.000978
124.952644348145 3.320268630981 23.117378234863 0.999999 0.000978 0.000978
124.952644348145 49.602367401123 27.111724853516 0.999999 0.000978 0.000978
124.952644348145 21.214475631714 19.791614532471 0.999999 0.000978 0.000978
124.952644348145 60.803627014160 25.373853683472 0.999999 0.000978 0.000978
124.952644348145 21.122093200684 9.542667388916 0.999999 0.000978 0.000978
124.952644348145 46.670837402344 12.107881546021 0.999999 0.000978 0.000978
124.952644348145 38.912235260010 9.677299499512 0.999999 0.000978 0.000978
124.952644348145 41.813323974609 26.151828765869 0.999999 0.000978 0.000978
124.952644348145 48.214473724365 14.829963684082 0.999999 0.000978 0.000978
124.952644348145 4.630383968353 24.909767150879 0.999999 0.000978 0.000978
124.952644348145 30.121782302856 13.973855972290 0.999999 0.000978 0.000978
124.952644348145 26.469129562378 17.468219757080 0.999999 0.000978 0.000978
124.952644348145 44.372577667236 22.193653106689 0.999999 0.000978 0.000978
124.952644348145 26.358535766602 5.402696609497 0.999999 0.000978 0.000978
124.952644348145 55.322505950928 14.746704101563 0.999999 0.000978 0.000978
124.952644348145 36.938171386719 14.693757057190 0.999999 0.000978 0.000978
124.952644348145 35.178180694580 15.474300384521 0.999999 0.000978 0.000978
124.952644348145 41.037719726563 3.074226856232 0.999999 0.000978 0.000978
124.952644348145 36.934608459473 2.749364852905 0.999999 0.000978 0.000978
124.952644348145 49.504844665527 4.200548648834 0.999999 0.000978 0.000978
124.952644348145 59.973320007324 15.988212585449 0.999999 0.000978 0.000978
124.952644348145 55.664592742920 10.841709136963 0.999999 0.000978 0.000978
124.952644348145 48.113071441650 4.878869056702 0.999999 0.000978 0.000978
124.952644348145 59.977870941162 15.402551651001 0.999999 0.000978 0.000978
124.952644348145 63.317855834961 5.573706626892 0.999999 0.000978 0.000978
124.952644348145 71.666007995605 17.357385635376 0.999999 0.000978 0.000978
124.952644348145 59.572597503662 3.296650171280 0.999999 0.000978 0.000978
124.952644348145 67.080490112305 0.733161568642 0.999999 0.000978 0.000978
124.952644348145 59.819526672363 6.138450622559 0.999999 0.000978 0.000978
124.952644348145 63.541030883789 13.236770629883 0.999999 0.000978 0.000978
124.952644348145 51.059570312500 3.336428165436 0.999999 0.000978 0.000978
124.952644348145 77.305557250977 2.417181730270 0.999999 0.000978 0.000978
124.952644348145 71.762718200684 14.698919296265 0.999999 0.000978 0.000978
124.952644348145 56.862255096436 8.905401229858 0.999999 0.000978 0.000978
124.952644348145 74.330215454102 12.157819747925 0.999999 0.000978 0.000978
124.952644348145 71.133926391602 9.854961395264 0.999999 0.000978 0.000978
124.952644348145 77.862243652344 13.971246719360 0.999999 0.000978 0.000978
124.952644348145 79.798667907715 8.488723754883 0.999999 0.000978 0.000978
124.952644348145 79.529426574707 24.101921081543 0.999999 0.000978 0.000978
124.952644348145 64.106353759766 4.207096576691 0.999999 0.000978 0.000978
124.952644348145 78.656562805176 9.027639389038 0.999999 0.000978 0.000978
124.952644348145 69.220741271973 13.046335220337 0.999999 0.000978 0.000978
167.510437011719 -351.074951171875 5.687189102173 0.992394 0.123096 0.001089
167.945816040039 -354.619781494141 17.877090454102 0.992394 0.123096 0.001089
167.242828369141 -348.896179199219 15.822347640991 0.992394 0.123096 0.001089
167.468338012695 -350.732147216797 20.795013427734 0.992394 0.123096 0.001089
167.165374755859 -348.265533447266 12.652830123901 0.992394 0.123096 0.001089
167.674392700195 -352.409851074219 22.411960601807 0.992394 0.123096 0.001089
166.217926025391 -340.551666259766 10.318325042725 0.992394 0.123096 0.001089
167.617416381836 -351.945953369141 22.782945632935 0.992394 0.123096 0.001089
166.832977294922 -345.559295654297 13.747081756592 0.992394 0.123096 0.001089
167.360427856445 -349.853576660156 10.131431579590 0.992394 0.123096 0.001089
166.431167602539 -342.287841796875 2.853659629822 0.992394 0.123096 0.001089
155.874389648438 -256.337310791016 0.180537074804 0.992394 0.123096 0.001089
156.614318847656 -262.361602783203 5.992789745331 0.992394 0.123096 0.001089
164.136291503906 -323.603637695313 19.205869674683 0.992394 0.123096 0.001089
155.427307128906 -252.697265625000 12.087625503540 0.992394 0.123096 0.001089
162.262939453125 -308.351226806641 18.975303649902 0.992394 0.123096 0.001089
160.837158203125 -296.742919921875 10.768785476685 0.992394 0.123096 0.001089
161.453414916992 -301.760253906250 8.074052810669 0.992394 0.123096 0.001089
165.024780273438 -330.837341308594 11.170269012451 0.992394 0.123096 0.001089
165.982406616211 -338.634277343750 21.298419952393 0.992394 0.123096 0.001089
154.938217163086 -248.715209960938 7.270825386047 0.992394 0.123096 0.001089
166.205093383789 -340.447143554688 18.052116394043 0.992394 0.123096 0.001089
161.433044433594 -301.594360351563 14.369143486023 0.992394 0.123096 0.001089
160.053588867188 -290.363189697266 2.287118911743 0.992394 0.123096 0.001089
162.865432739258 -313.256561279297 0.222528472543 0.992394 0.123096 0.001089
160.371902465820 -292.954864501953 -0.661689162254 0.992394 0.123096 0.001089
166.423141479492 -342.222564697266 23.560802459717 0.992394 0.123096 0.001089
152.321548461914 -227.410903930664 -0.979081332684 0.992394 0.123096 0.001089
161.763320922852 -304.283508300781 8.099125862122 0.992394 0.123096 0.001089
164.021438598633 -322.668365478516 0.173166692257 0.992394 0.123096 0.001089
166.649108886719 -344.062316894531 18.841339111328 0.992394 0.123096 0.001089
150.812469482422 -215.124450683594 2.557645797729 0.992394 0.123096 0.001089
166.873825073242 -345.891906738281 24.642166137695 0.992394 0.123096 0.001089
164.503051757813 -326.589721679688 22.456977844238 0.992394 0.123096 0.001089
155.624389648438 -254.301940917969 9.577292442322 0.992394 0.123096 0.001089
148.663024902344 -197.624191284180 2.918087959290 0.992394 0.123096 0.001089
151.601440429688 -221.548141479492 3.198720455170 0.992394 0.123096 0.001089
165.007781982422 -330.698883056641 4.170886039734 0.992394 0.123096 0.001089
167.194000244141 -348.498657226563 21.660614013672 0.992394 0.123096 0.001089
158.777832031250 -279.976318359375 5.134110927582 0.992394 0.123096 0.001089
163.297592163086 -316.775146484375 3.069370746613 0.992394 0.123096 0.001089
165.114715576172 -331.569671630859 8.210414886475 0.992394 0.123096 0.001089
152.829299926758 -231.544967651367 -0.864211440086 0.992394 0.123096 0.001089
161.504241943359 -302.174163818359 11.001449584961 0.992394 0.123096 0.001089
148.633483886719 -197.383743286133 2.040577650070 0.992394 0.123096 0.001089
161.079803466797 -298.718322753906 0.650430738926 0.992394 0.123096 0.001089
159.143630981445 -282.954589843750 16.392223358154 0.992394 0.123096 0.001089
167.572280883789 -351.578552246094 27.520185470581 0.992394 0.123096 0.001089
162.326004028320 -308.864746093750 13.417509078979 0.992394 0.123096 0.001089
147.371673583984 -187.110458374023 0.779725968838 0.992394 0.123096 0.001089
161.283599853516 -300.377746582031 15.888592720032 0.992394 0.123096 0.001089
157.622528076172 -270.570251464844 8.940504074097 0.992394 0.123096 0.001089
161.131973266602 -299.143157958984 0.887202084064 0.992394 0.123096 0.001089
166.780776977539 -345.134277343750 20.827260971069 0.992394 0.123096 0.001089
154.082763671875 -241.750259399414 4.287773132324 0.992394 0.123096 0.001089
159.628448486328 -286.901947021484 5.551230907440 0.992394 0.123096 0.001089
163.632415771484 -319.501220703125 13.863051414490 0.992394 0.123096 0.001089
162.042098999023 -306.553222656250 9.460025787354 0.992394 0.123096 0.001089
164.127670288086 -323.533325195313 10.278448104858 0.992394 0.123096 0.001089
158.085739135742 -274.341644287109 15.036939620972 0.992394 0.123096 0.001089
153.136703491211 -234.047790527344 4.352689743042 0.992394 0.123096 0.001089
163.134033203125 -315.443298339844 0.937723755836 0.992394 0.123096 0.001089
163.047103881836 -314.735626220703 8.718812942505 0.992394 0.123096 0.001089
161.510604858398 -302.225891113281 13.996125221252 0.992394 0.123096 0.001089
162.195632934570 -307.803253173828 10.283777236938 0.992394 0.123096 0.001089
164.190704345703 -324.046600341797 6.615221023560 0.992394 0.123096 0.001089
145.193328857422 -169.374847412109 -1.386029839516 0.992394 0.123096 0.001089
157.724685668945 -271.401947021484 5.007705211639 0.992394 0.123096 0.001089
164.274108886719 -324.725708007813 13.694742202759 0.992394 0.123096 0.001089
165.261398315430 -332.764007568359 15.445141792297 0.992394 0.123096 0.001089
164.085128784180 -323.187072753906 20.542549133301 0.992394 0.123096 0.001089
157.467636108398 -269.309234619141 12.977284431458 0.992394 0.123096 0.001089
148.512435913086 -196.398193359375 0.058216128498 0.992394 0.123096 0.001089
164.941131591797 -330.156402587891 22.944131851196 0.992394 0.123096 0.001089
160.918838500977 -297.407806396484 -1.038934707642 0.992394 0.123096 0.001089
157.549484252930 -269.975463867188 5.642991542816 0.992394 0.123096 0.001089
158.911117553711 -281.061645507813 13.317007064819 0.992394 0.123096 0.001089
160.278106689453 -292.191314697266 10.387215614319 0.992394 0.123096 0.001089
153.903961181641 -240.294555664063 8.908532142639 0.992394 0.123096 0.001089
151.909881591797 -224.059371948242 7.489282608032 0.992394 0.123096 0.001089
153.011810302734 -233.030914306641 3.880322933197 0.992394 0.123096 0.001089
164.729141235352 -328.430328369141 18.760042190552 0.992394 0.123096 0.001089
156.821136474609 -264.045471191406 -0.872277617455 0.992394 0.123096 0.001089
164.913131713867 -329.928405761719 15.867227554321 0.992394 0.123096 0.001089
164.950073242188 -330.229187011719 14.398559570313 0.992394 0.123096 0.001089
160.872756958008 -297.032775878906 13.845095634460 0.992394 0.123096 0.001089
163.352264404297 -317.220336914063 18.751041412354 0.992394 0.123096 0.001089
163.162475585938 -315.675048828125 22.187492370605 0.992394 0.123096 0.001089
154.743560791016 -247.130355834961 4.267356872559 0.992394 0.123096 0.001089
158.569717407227 -278.281921386719 10.728860855103 0.992394 0.123096 0.001089
163.056594848633 -314.812896728516 15.350879669189 0.992394 0.123096 0.001089
151.171127319336 -218.044601440430 25.924718856812 0.992394 0.123096 0.001089
140.982009887695 -135.087417602539 4.838705062866 0.992394 0.123096 0.001089
149.265884399414 -202.532592773438 12.878116607666 0.992394 0.123096 0.001089
153.704727172852 -238.672531127930 15.611779212952 0.992394 0.123096 0.001089
130.324981689453 -48.320751190186 26.333501815796 0.992394 0.123096 0.001089
144.288787841797 -162.010375976563 3.477054595947 0.992394 0.123096 0.001089
152.104583740234 -225.644531250000 19.344528198242 0.992394 0.123096 0.001089
147.489379882813 -188.068756103516 18.680950164795 0.992394 0.123096 0.001089
138.042144775391 -111.151908874512 25.697055816650 0.992394 0.123096 0.001089
161.505691528320 -302.185913085938 24.048902511597 0.992394 0.123096 0.001089
130.084396362305 -46.362003326416 23.258552551270 0.992394 0.123096 0.001089
141.512542724609 -139.406921386719 27.051755905151 0.992394 0.123096 0.001089
143.494522094727 -155.543731689453 16.302886962891 0.992394 0.123096 0.001089
148.188385009766 -193.759963989258 26.774776458740 0.992394 0.123096 0.001089
159.000656127930 -281.790588378906 21.098176956177 0.992394 0.123096 0.001089
141.673873901367 -140.720550537109 17.002517700195 0.992394 0.123096 0.001089
142.639099121094 -148.579101562500 17.926170349121 0.992394 0.123096 0.001089
142.709884643555 -149.155303955078 7.618318557739 0.992394 0.123096 0.001089
144.233657836914 -161.561523437500 5.984632492065 0.992394 0.123096 0.001089
139.673110961914 -124.430664062500 12.593202590942 0.992394 0.123096 0.001089
153.001312255859 -232.945541381836 21.618679046631 0.992394 0.123096 0.001089
149.561111450195 -204.936294555664 24.497833251953 0.992394 0.123096 0.001089
145.070861816406 -168.377746582031 16.711894989014 0.992394 0.123096 0.001089
151.895599365234 -223.943115234375 25.809301376343 0.992394 0.123096 0.001089
132.028717041016 -62.192108154297 23.293920516968 0.992394 0.123096 0.001089
161.427627563477 -301.550445556641 20.859498977661 0.992394 0.123096 0.001089
158.925918579102 -281.182159423828 20.272480010986 0.992394 0.123096 0.001089
139.787429809570 -125.361480712891 10.015348434448 0.992394 0.123096 0.001089
135.181991577148 -87.865226745605 23.884170532227 0.992394 0.123096 0.001089
146.577301025391 -180.642883300781 3.203941345215 0.992394 0.123096 0.001089
139.184463500977 -120.452316284180 21.369558334351 0.992394 0.123096 0.001089
151.572738647461 -221.314422607422 15.813922882080 0.992394 0.123096 0.001089
145.628677368164 -172.919326782227 5.777345657349 0.992394 0.123096 0.001089
153.494476318359 -236.960678100586 22.078884124756 0.992394 0.123096 0.001089
154.763137817383 -247.289840698242 22.039903640747 0.992394 0.123096 0.001089
149.709548950195 -206.144897460938 9.171085357666 0.992394 0.123096 0.001089
129.921432495117 -45.035175323486 27.814981460571 0.992394 0.123096 0.001089
142.362991333008 -146.331024169922 8.202524185181 0.992394 0.123096 0.001089
138.730331420898 -116.754898071289 18.311836242676 0.992394 0.123096 0.001089
161.574371337891 -302.745178222656 27.106866836548 0.992394 0.123096 0.001089
133.864822387695 -77.141159057617 18.797491073608 0.992394 0.123096 0.001089
139.788299560547 -125.368644714355 22.051309585571 0.992394 0.123096 0.001089
128.632751464844 -34.543087005615 28.124925613403 0.992394 0.123096 0.001089
137.579681396484 -107.386550903320 23.362434387207 0.992394 0.123096 0.001089
148.412551879883 -195.585067749023 5.718578338623 0.992394 0.123096 0.001089
147.978668212891 -192.052444458008 22.033128738403 0.992394 0.123096 0.001089
138.834609985352 -117.603866577148 24.576160430908 0.992394 0.123096 0.001089
154.254272460938 -243.146759033203 21.497114181519 0.992394 0.123096 0.001089
146.562805175781 -180.524887084961 25.770618438721 0.992394 0.123096 0.001089
161.752838134766 -304.198211669922 26.300035476685 0.992394 0.123096 0.001089
148.475448608398 -196.097076416016 25.819854736328 0.992394 0.123096 0.001089
157.158142089844 -266.789337158203 18.979478836060 0.992394 0.123096 0.001089
141.230789184570 -137.112960815430 17.559803009033 0.992394 0.123096 0.001089
149.838455200195 -207.194427490234 15.501758575439 0.992394 0.123096 0.001089
153.822433471680 -239.630920410156 25.292037963867 0.992394 0.123096 0.001089
143.939575195313 -159.167083740234 10.028539657593 0.992394 0.123096 0.001089
146.409851074219 -179.279525756836 27.675889968872 0.992394 0.123096 0.001089
159.669372558594 -287.235076904297 17.782066345215 0.992394 0.123096 0.001089
147.027099609375 -184.305038452148 12.988215446472 0.992394 0.123096 0.001089
145.823745727539 -174.507720947266 14.473180770874 0.992394 0.123096 0.001089
154.472961425781 -244.927322387695 16.611007690430 0.992394 0.123096 0.001089
146.552230834961 -180.438858032227 11.148092269897 0.992394 0.123096 0.001089
137.082595825195 -103.339515686035 21.072055816650 0.992394 0.123096 0.001089
157.521942138672 -269.751281738281 21.322504043579 0.992394 0.123096 0.001089
146.393417358398 -179.145660400391 13.036719322205 0.992394 0.123096 0.001089
152.648254394531 -230.070968627930 28.042816162109 0.992394 0.123096 0.001089
138.677169799805 -116.322006225586 13.959857940674 0.992394 0.123096 0.001089
139.960281372070 -126.768722534180 19.529333114624 0.992394 0.123096 0.001089
144.566680908203 -164.272872924805 1.269969940186 0.992394 0.123096 0.001089
152.544540405273 -229.226593017578 15.880981445313 0.992394 0.123096 0.001089
133.203567504883 -71.757385253906 16.558822631836 0.992394 0.123096 0.001089
140.500274658203 -131.165252685547 11.331066131592 0.992394 0.123096 0.001089
151.346115112305 -219.469299316406 12.931188583374 0.992394 0.123096 0.001089
132.491287231445 -65.958251953125 18.559612274170 0.992394 0.123096 0.001089
140.416534423828 -130.483520507813 14.508153915405 0.992394 0.123096 0.001089
151.782867431641 -223.025329589844 12.627875328064 0.992394 0.123096 0.001089
154.680984497070 -246.621047973633 25.699504852295 0.992394 0.123096 0.001089
134.270507812500 -80.444198608398 27.366264343262 0.992394 0.123096 0.001089
150.231979370117 -210.398284912109 21.141576766968 0.992394 0.123096 0.001089
136.402694702148 -97.803939819336 18.193595886230 0.992394 0.123096 0.001089
147.096878051758 -184.873138427734 19.573152542114 0.992394 0.123096 0.001089
148.518569946289 -196.448242187500 16.123184204102 0.992394 0.123096 0.001089
141.439941406250 -138.815902709961 26.494991302490 0.992394 0.123096 0.001089
151.038894653320 -216.968048095703 28.329236984253 0.992394 0.123096 0.001089
148.755599975586 -198.378128051758 26.359428405762 0.992394 0.123096 0.001089
144.489959716797 -163.648239135742 8.495347976685 0.992394 0.123096 0.001089
147.697357177734 -189.761978149414 8.655668258667 0.992394 0.123096 0.001089
153.946792602539 -240.643310546875 16.315927505493 0.992394 0.123096 0.001089
138.897598266602 -118.116668701172 14.400457382202 0.992394 0.123096 0.001089
143.355285644531 -154.410064697266 9.447406768799 0.992394 0.123096 0.001089
150.533325195313 -212.851867675781 8.813407897949 0.992394 0.123096 0.001089
135.060943603516 -86.879684448242 24.957300186157 0.992394 0.123096 0.001089
157.318298339844 -268.093231201172 23.608713150024 0.992394 0.123096 0.001089
143.706069946289 -157.266098022461 11.004352569580 0.992394 0.123096 0.001089
149.088623046875 -201.089324951172 5.640197753906 0.992394 0.123096 0.001089
129.915008544922 -44.982872009277 24.208580017090 0.992394 0.123096 0.001089
149.662399291992 -205.760894775391 23.385921478271 0.992394 0.123096 0.001089
129.415847778320 -40.918762207031 24.948843002319 0.992394 0.123096 0.001089
142.842132568359 -150.232162475586 2.019203186035 0.992394 0.123096 0.001089
149.234985351563 -202.280975341797 20.609264373779 0.992394 0.123096 0.001089
134.199798583984 -79.868484497070 22.423122406006 0.992394 0.123096 0.001089
144.523254394531 -163.919494628906 27.395851135254 0.992394 0.123096 0.001089
146.630020141602 -181.072128295898 21.018470764160 0.992394 0.123096 0.001089
147.151168823242 -185.315155029297 4.979221343994 0.992394 0.123096 0.001089
165.694381713867 -336.289245605469 27.446464538574 0.992394 0.123096 0.001089
150.883636474609 -215.703979492188 19.685808181763 0.992394 0.123096 0.001089
140.817901611328 -133.751388549805 25.756103515625 0.992394 0.123096 0.001089
131.621719360352 -58.878482818604 25.891469955444 0.992394 0.123096 0.001089
150.481246948242 -212.427764892578 23.613958358765 0.992394 0.123096 0.001089
157.806564331055 -272.068634033203 18.848564147949 0.992394 0.123096 0.001089
146.340377807617 -178.713943481445 24.607368469238 0.992394 0.123096 0.001089
152.003479003906 -224.821380615234 17.844104766846 0.992394 0.123096 0.001089
130.723999023438 -51.569526672363 20.388145446777 0.992394 0.123096 0.001089
142.931121826172 -150.956710815430 17.512762069702 0.992394 0.123096 0.001089
146.795471191406 -182.419158935547 2.771297454834 0.992394 0.123096 0.001089
143.359039306641 -154.440567016602 9.863933563232 0.992394 0.123096 0.001089
134.495819091797 -82.278602600098 27.661623001099 0.992394 0.123096 0.001089
144.335189819336 -162.388214111328 7.048994064331 0.992394 0.123096 0.001089
125.950134277344 -12.701903343201 27.328786849976 0.992394 0.123096 0.001089
150.007019042969 -208.566741943359 13.039466857910 0.992394 0.123096 0.001089
142.544296264648 -147.807312011719 21.710906982422 0.992394 0.123096 0.001089
151.692626953125 -222.290466308594 10.833995819092 0.992394 0.123096 0.001089
153.586914062500 -237.713363647461 17.142040252686 0.992394 0.123096 0.001089
150.800338745117 -215.025787353516 20.722633361816 0.992394 0.123096 0.001089
145.648513793945 -173.080963134766 11.664848327637 0.992394 0.123096 0.001089
141.196701049805 -136.835449218750 23.858417510986 0.992394 0.123096 0.001089
131.602783203125 -58.724296569824 21.041896820068 0.992394 0.123096 0.001089
136.843460083008 -101.392410278320 27.987241744995 0.992394 0.123096 0.001089
132.193405151367 -63.533012390137 23.818470001221 0.992394 0.123096 0.001089
134.820678710938 -84.923553466797 15.302639961243 0.992394 0.123096 0.001089
149.138656616211 -201.496749877930 12.230190277100 0.992394 0.123096 0.001089
142.686904907227 -148.968368530273 13.493183135986 0.992394 0.123096 0.001089
137.507263183594 -106.797004699707 22.215875625610 0.992394 0.123096 0.001089
154.814682006836 -247.709518432617 26.137008666992 0.992394 0.123096 0.001089
137.775756835938 -108.983009338379 12.355257034302 0.992394 0.123096 0.001089
149.810455322266 -206.966430664063 10.015075683594 0.992394 0.123096 0.001089
160.365707397461 -292.904602050781 27.623174667358 0.992394 0.123096 0.001089
140.912368774414 -134.520446777344 5.410230636597 0.992394 0.123096 0.001089
158.935577392578 -281.260803222656 26.424888610840 0.992394 0.123096 0.001089
136.910324096680 -101.936874389648 21.674623489380 0.992394 0.123096 0.001089
158.771026611328 -279.921020507813 22.771036148071 0.992394 0.123096 0.001089
153.264175415039 -235.085601806641 25.068346023560 0.992394 0.123096 0.001089
143.546859741211 -155.969757080078 5.846189498901 0.992394 0.123096 0.001089
158.947158813477 -281.355041503906 17.614454269409 0.992394 0.123096 0.001089
157.848663330078 -272.411315917969 23.379941940308 0.992394 0.123096 0.001089
146.874862670898 -183.065597534180 26.488819122314 0.992394 0.123096 0.001089
139.487869262695 -122.922561645508 14.488252639771 0.992394 0.123096 0.001089
142.898681640625 -150.692428588867 2.270505905151 0.992394 0.123096 0.001089
145.441192626953 -171.392944335938 1.246517181396 0.992394 0.123096 0.001089
141.385986328125 -138.376602172852 23.180110931396 0.992394 0.123096 0.001089
142.136764526367 -144.489166259766 24.361782073975 0.992394 0.123096 0.001089
157.306701660156 -267.998809814453 24.763122558594 0.992394 0.123096 0.001089
142.774810791016 -149.683959960938 27.412965774536 0.992394 0.123096 0.001089
159.711196899414 -287.575683593750 19.239799499512 0.992394 0.123096 0.001089
141.531036376953 -139.557571411133 28.408624649048 0.992394 0.123096 0.001089
138.604202270508 -115.728042602539 22.746250152588 0.992394 0.123096 0.001089
153.330566406250 -235.626190185547 24.513027191162 0.992394 0.123096 0.001089
146.705459594727 -181.686370849609 17.473913192749 0.992394 0.123096 0.001089
140.066253662109 -127.631652832031 18.881332397461 0.992394 0.123096 0.001089
137.208175659180 -104.361885070801 21.431217193604 0.992394 0.123096 0.001089
150.785400390625 -214.904144287109 18.672603607178 0.992394 0.123096 0.001089
150.734191894531 -214.487213134766 25.979240417480 0.992394 0.123096 0.001089
152.417083740234 -228.188812255859 14.056672096252 0.992394 0.123096 0.001089
130.798995971680 -52.180057525635 21.589313507080 0.992394 0.123096 0.001089
165.408065795898 -333.958190917969 27.311508178711 0.992394 0.123096 0.001089
142.314346313477 -145.934967041016 4.200895309448 0.992394 0.123096 0.001089
135.794998168945 -92.856193542480 28.198524475098 0.992394 0.123096 0.001089
157.239242553711 -267.449645996094 26.038425445557 0.992394 0.123096 0.001089
133.318588256836 -72.693992614746 21.183576583862 0.992394 0.123096 0.001089
134.013168334961 -78.348953247070 24.854330062866 0.992394 0.123096 0.001089
140.983337402344 -135.098388671875 14.080679893494 0.992394 0.123096 0.001089
135.988113403320 -94.428512573242 15.176540374756 0.992394 0.123096 0.001089
141.871337890625 -142.328048706055 2.681155681610 0.992394 0.123096 0.001089
144.027206420898 -159.880554199219 -1.302780032158 0.992394 0.123096 0.001089
130.204467773438 -47.339538574219 20.578012466431 0.992394 0.123096 0.001089
144.971588134766 -167.569610595703 -1.332344174385 0.992394 0.123096 0.001089
132.612686157227 -66.946624755859 17.109312057495 0.992394 0.123096 0.001089
137.711456298828 -108.459388732910 8.639022827148 0.992394 0.123096 0.001089
133.201965332031 -71.744354248047 4.330024242401 0.992394 0.123096 0.001089
130.998764038086 -53.806457519531 1.954455256462 0.992394 0.123096 0.001089
126.695106506348 -18.767244338989 8.640643119812 0.992394 0.123096 0.001089
132.990249633789 -70.020553588867 -0.775734066963 0.992394 0.123096 0.001089
129.403350830078 -40.817073822021 19.331727981567 0.992394 0.123096 0.001089
131.172790527344 -55.223346710205 0.261820435524 0.992394 0.123096 0.001089
135.129653930664 -87.439018249512 1.519521951675 0.992394 0.123096 0.001089
131.323608398438 -56.451282501221 0.264464080334 0.992394 0.123096 0.001089
131.425872802734 -57.283828735352 17.208774566650 0.992394 0.123096 0.001089
128.696563720703 -35.062625885010 -1.122892379761 0.992394 0.123096 0.001089
129.458480834961 -41.265895843506 10.530643463135 0.992394 0.123096 0.001089
130.201492309570 -47.315303802490 19.279567718506 0.992394 0.123096 0.001089
130.176971435547 -47.115718841553 3.015802145004 0.992394 0.123096 0.001089
136.032730102539 -94.791625976563 8.369802474976 0.992394 0.123096 0.001089
129.197006225586 -39.137100219727 6.958568572998 0.992394 0.123096 0.001089
131.403244018555 -57.099670410156 2.353314399719 0.992394 0.123096 0.001089
133.440475463867 -73.686210632324 11.493067741394 0.992394 0.123096 0.001089
129.781280517578 -43.894020080566 -1.241891145706 0.992394 0.123096 0.001089
129.815841674805 -44.175395965576 14.100303649902 0.992394 0.123096 0.001089
130.717422485352 -51.515857696533 13.891246795654 0.992394 0.123096 0.001089
125.847648620605 -11.867488861084 12.308002471924 0.992394 0.123096 0.001089
127.922515869141 -28.760475158691 19.421169281006 0.992394 0.123096 0.001089
137.573898315430 -107.339492797852 6.385520458221 0.992394 0.123096 0.001089
127.732154846191 -27.210584640503 12.660420417786 0.992394 0.123096 0.001089
132.607254028320 -66.902404785156 8.679509162903 0.992394 0.123096 0.001089
134.454376220703 -81.941123962402 12.990469932556 0.992394 0.123096 0.001089
129.825500488281 -44.254058837891 3.431370496750 0.992394 0.123096 0.001089
125.406776428223 -8.278034210205 24.903890609741 0.992394 0.123096 0.001089
135.044189453125 -86.743232727051 1.433219909668 0.992394 0.123096 0.001089
129.203262329102 -39.187946319580 8.166207313538 0.992394 0.123096 0.001089
127.530685424805 -25.570323944092 22.414537429810 0.992394 0.123096 0.001089
131.104278564453 -54.665561676025 9.216390609741 0.992394 0.123096 0.001089
129.664718627930 -42.945068359375 3.388746261597 0.992394 0.123096 0.001089
132.143234252930 -63.124458312988 -0.115751586854 0.992394 0.123096 0.001089
129.447296142578 -41.174884796143 1.081611156464 0.992394 0.123096 0.001089
139.644882202148 -124.200889587402 0.731362819672 0.992394 0.123096 0.001089
