//X Y Z Nx Ny Nz
599
66.438148498535 -2.745666980743 -124.734420776367 -0.052343 -0.998629 0.001026
-196.527420043945 11.035775184631 -187.395187377930 -0.052343 -0.998629 0.001026
-139.669570922852 8.055975914001 -55.254119873047 -0.052343 -0.998629 0.001026
-106.243774414063 6.304202079773 13.791687011719 -0.052343 -0.998629 0.001026
-236.633529663086 13.137644767761 -112.546234130859 -0.052343 -0.998629 0.001026
-252.404022216797 13.964130401611 103.672851562500 -0.052343 -0.998629 0.001026
-83.889549255371 5.132669448853 -54.343826293945 -0.052343 -0.998629 0.001026
-228.795242309570 12.726852416992 20.762908935547 -0.052343 -0.998629 0.001026
-64.346809387207 4.108478069305 -60.574188232422 -0.052343 -0.998629 0.001026
-52.594566345215 3.492569208145 -46.135757446289 -0.052343 -0.998629 0.001026
55.624355316162 -2.178939342499 -147.971252441406 -0.052343 -0.998629 0.001026
-194.081268310547 10.907567977905 40.877349853516 -0.052343 -0.998629 0.001026
-149.949111938477 8.594708442688 -155.363006591797 -0.052343 -0.998629 0.001026
-81.896263122559 5.028204441071 -26.222366333008 -0.052343 -0.998629 0.001026
-120.896652221680 7.072130203247 -72.058609008789 -0.052343 -0.998629 0.001026
-199.529220581055 11.193090438843 -117.348953247070 -0.052343 -0.998629 0.001026
-128.928604125977 7.493072509766 -201.180465698242 -0.052343 -0.998629 0.001026
-10.260801315308 1.273952484131 -87.429878234863 -0.052343 -0.998629 0.001026
-97.583648681641 5.850347995758 -76.982849121094 -0.052343 -0.998629 0.001026
-183.500396728516 10.353058815002 -196.489913940430 -0.052343 -0.998629 0.001026
-45.072826385498 3.098377466202 -174.070083618164 -0.052343 -0.998629 0.001026
-47.014854431152 3.200155019760 -179.008071899414 -0.052343 -0.998629 0.001026
-43.196971893311 3.000061035156 -13.020401000977 -0.052343 -0.998629 0.001026
-212.631088256836 11.879726409912 -45.751525878906 -0.052343 -0.998629 0.001026
-246.194702148438 13.638713836670 116.162033081055 -0.052343 -0.998629 0.001026
-180.526046752930 10.197174072266 -93.380462646484 -0.052343 -0.998629 0.001026
-37.873184204102 2.721054315567 -54.729644775391 -0.052343 -0.998629 0.001026
42.817913055420 -1.507781744003 -159.257705688477 -0.052343 -0.998629 0.001026
-227.754592895508 12.672319412231 -152.017776489258 -0.052343 -0.998629 0.001026
-170.931991577148 9.694362640381 116.364242553711 -0.052343 -0.998629 0.001026
-188.526687622070 10.616465568542 28.055862426758 -0.052343 -0.998629 0.001026
-197.254165649414 11.073859214783 -102.433639526367 -0.052343 -0.998629 0.001026
-66.736991882324 4.233747005463 -152.438964843750 -0.052343 -0.998629 0.001026
-172.233367919922 9.762568473816 51.450073242188 -0.052343 -0.998629 0.001026
-111.244499206543 6.566284179688 -120.518882751465 -0.052343 -0.998629 0.001026
-3.065061092377 0.896844267845 -185.471191406250 -0.052343 -0.998629 0.001026
93.928215026855 -4.186357975006 -149.650817871094 -0.052343 -0.998629 0.001026
-161.969802856445 9.224682807922 -86.186386108398 -0.052343 -0.998629 0.001026
73.664039611816 -3.124359130859 -161.773147583008 -0.052343 -0.998629 0.001026
-222.771041870117 12.411134719849 49.002914428711 -0.052343 -0.998629 0.001026
-131.027267456055 7.603055477142 -144.148941040039 -0.052343 -0.998629 0.001026
-72.853393554688 4.554293155670 -150.059539794922 -0.052343 -0.998629 0.001026
-85.569099426270 5.220693588257 -125.985771179199 -0.052343 -0.998629 0.001026
-208.758407592773 11.676763534546 35.623779296875 -0.052343 -0.998629 0.001026
-121.405181884766 7.098783493042 -127.699287414551 -0.052343 -0.998629 0.001026
-90.498458862305 5.479033470154 -175.792617797852 -0.052343 -0.998629 0.001026
-71.862358093262 4.502351760864 -70.083435058594 -0.052343 -0.998629 0.001026
-204.565994262695 11.457054138184 -67.444229125977 -0.052343 -0.998629 0.001026
-26.886777877808 2.145280122757 -38.911422729492 -0.052343 -0.998629 0.001026
-218.113632202148 12.167061805725 -189.649093627930 -0.052343 -0.998629 0.001026
-208.824493408203 11.680224418640 127.875488281250 -0.052343 -0.998629 0.001026
-215.212158203125 12.014999389648 -124.073150634766 -0.052343 -0.998629 0.001026
2.127820968628 0.624694406986 -138.614746093750 -0.052343 -0.998629 0.001026
-242.149307250977 13.426717758179 -192.400177001953 -0.052343 -0.998629 0.001026
-217.166641235352 12.117429733276 -159.528991699219 -0.052343 -0.998629 0.001026
-63.188323974609 4.047762393951 -14.802413940430 -0.052343 -0.998629 0.001026
0.096842527390 0.731130480766 -77.998741149902 -0.052343 -0.998629 0.001026
5.816070556641 0.431403666735 -177.510650634766 -0.052343 -0.998629 0.001026
84.186775207520 -3.675832033157 -144.791198730469 -0.052343 -0.998629 0.001026
-211.654418945313 11.828535079956 97.607650756836 -0.052343 -0.998629 0.001026
-142.354721069336 8.196694374084 40.885848999023 -0.052343 -0.998629 0.001026
-49.224048614502 3.315926074982 -11.135314941406 -0.052343 -0.998629 0.001026
-147.405364990234 8.461398124695 -196.861557006836 -0.052343 -0.998629 0.001026
-51.558143615723 3.438251495361 -37.468704223633 -0.052343 -0.998629 0.001026
-172.053207397461 9.753135681152 -187.316680908203 -0.052343 -0.998629 0.001026
-102.806625366211 6.124075889587 -156.733657836914 -0.052343 -0.998629 0.001026
-80.082092285156 4.933135032654 -192.679672241211 -0.052343 -0.998629 0.001026
-117.125488281250 6.874491214752 -40.175521850586 -0.052343 -0.998629 0.001026
-179.097396850586 10.122300148010 -25.911422729492 -0.052343 -0.998629 0.001026
91.214164733887 -4.044120788574 -160.469711303711 -0.052343 -0.998629 0.001026
-41.797679901123 2.926727056503 -14.906768798828 -0.052343 -0.998629 0.001026
-214.011978149414 11.952095985413 -34.659088134766 -0.052343 -0.998629 0.001026
-57.487567901611 3.748998641968 -13.108489990234 -0.052343 -0.998629 0.001026
-131.880584716797 7.647777080536 -161.014801025391 -0.052343 -0.998629 0.001026
-149.899566650391 8.592104911804 9.427810668945 -0.052343 -0.998629 0.001026
-26.565061569214 2.128426074982 -172.479400634766 -0.052343 -0.998629 0.001026
-166.922729492188 9.484254837036 -59.162399291992 -0.052343 -0.998629 0.001026
-157.273574829102 8.978559494019 22.021957397461 -0.052343 -0.998629 0.001026
-165.009826660156 9.383999824524 13.493103027344 -0.052343 -0.998629 0.001026
-175.326354980469 9.924664497375 64.022384643555 -0.052343 -0.998629 0.001026
-199.982360839844 11.216841697693 -197.885437011719 -0.052343 -0.998629 0.001026
-216.639083862305 12.089776992798 -55.443420410156 -0.052343 -0.998629 0.001026
-150.515625000000 8.624390602112 21.904785156250 -0.052343 -0.998629 0.001026
-195.876144409180 11.001641273499 -146.114898681641 -0.052343 -0.998629 0.001026
-196.567916870117 11.037894248962 -101.109336853027 -0.052343 -0.998629 0.001026
-232.301635742188 12.910614013672 -21.038864135742 -0.052343 -0.998629 0.001026
-81.673500061035 5.016530513763 -38.080139160156 -0.052343 -0.998629 0.001026
-232.749267578125 12.934080123901 -149.179534912109 -0.052343 -0.998629 0.001026
-45.666156768799 3.129464626312 -5.291290283203 -0.052343 -0.998629 0.001026
-249.703720092773 13.822610855103 160.175918579102 -0.052343 -0.998629 0.001026
54.683837890625 -2.129649877548 -137.946823120117 -0.052343 -0.998629 0.001026
-35.707454681396 2.607558012009 -160.428100585938 -0.052343 -0.998629 0.001026
-138.696151733398 8.004961967468 -79.375526428223 -0.052343 -0.998629 0.001026
-38.268051147461 2.741747379303 -29.948028564453 -0.052343 -0.998629 0.001026
-121.365875244141 7.096716403961 53.878829956055 -0.052343 -0.998629 0.001026
-84.227043151855 5.150354862213 -1.345123291016 -0.052343 -0.998629 0.001026
-134.718444824219 7.796493053436 79.974838256836 -0.052343 -0.998629 0.001026
23.191646575928 -0.479213833809 -127.335754394531 -0.052343 -0.998629 0.001026
-111.543884277344 6.581966400146 54.687637329102 -0.052343 -0.998629 0.001026
-143.767440795898 8.270733833313 17.251815795898 -0.052343 -0.998629 0.001026
-85.513702392578 5.217789649963 -72.202911376953 -0.052343 -0.998629 0.001026
-217.463912963867 12.133006095886 -88.954742431641 -0.052343 -0.998629 0.001026
-160.177627563477 9.130759239197 -71.461303710938 -0.052343 -0.998629 0.001026
-203.858398437500 11.419972419739 -97.939514160156 -0.052343 -0.998629 0.001026
-227.437454223633 12.655701637268 -187.392410278320 -0.052343 -0.998629 0.001026
80.637855529785 -3.489841222763 -159.739334106445 -0.052343 -0.998629 0.001026
-229.909103393555 12.785227775574 -27.748184204102 -0.052343 -0.998629 0.001026
-220.004257202148 12.266144752502 -206.357681274414 -0.052343 -0.998629 0.001026
-66.799880981445 4.237040996552 -125.468025207520 -0.052343 -0.998629 0.001026
-225.912460327148 12.575769424438 52.564941406250 -0.052343 -0.998629 0.001026
-58.967388153076 3.826554298401 -42.857635498047 -0.052343 -0.998629 0.001026
-198.191864013672 11.122992515564 91.199295043945 -0.052343 -0.998629 0.001026
-92.168472290039 5.566551208496 -98.373611450195 -0.052343 -0.998629 0.001026
-111.734947204590 6.591991424561 -192.023193359375 -0.052343 -0.998629 0.001026
25.938173294067 -0.623153507710 -142.410827636719 -0.052343 -0.998629 0.001026
-237.748062133789 13.196054458618 -115.557289123535 -0.052343 -0.998629 0.001026
59.539310455322 -2.384114027023 -144.192153930664 -0.052343 -0.998629 0.001026
-77.688781738281 4.807700157166 -16.360534667969 -0.052343 -0.998629 0.001026
-184.341400146484 10.397119522095 115.530395507813 -0.052343 -0.998629 0.001026
-83.659355163574 5.120606899261 -85.614181518555 -0.052343 -0.998629 0.001026
-177.394653320313 10.033056259155 116.739120483398 -0.052343 -0.998629 0.001026
-232.135940551758 12.901933670044 -75.847457885742 -0.052343 -0.998629 0.001026
-125.055038452148 7.290059566498 -26.167938232422 -0.052343 -0.998629 0.001026
-179.285217285156 10.132144927979 -71.680618286133 -0.052343 -0.998629 0.001026
-218.569168090820 12.190931320190 -90.941680908203 -0.052343 -0.998629 0.001026
-242.943572998047 13.468337059021 -35.562438964844 -0.052343 -0.998629 0.001026
-164.832946777344 9.374730110168 8.046493530273 -0.052343 -0.998629 0.001026
-124.919708251953 7.282968997955 -64.375274658203 -0.052343 -0.998629 0.001026
-127.810073852539 7.434441566467 55.356307983398 -0.052343 -0.998629 0.001026
-186.718658447266 10.521706581116 123.553329467773 -0.052343 -0.998629 0.001026
88.081306457520 -3.879935264587 -144.128311157227 -0.052343 -0.998629 0.001026
29.409023284912 -0.805054903030 -84.277420043945 -0.052343 -0.998629 0.001026
-98.269226074219 5.886274814606 -2.726196289063 -0.052343 -0.998629 0.001026
-137.514953613281 7.943051815033 72.741058349609 -0.052343 -0.998629 0.001026
-164.484878540039 9.356485366821 79.519592285156 -0.052343 -0.998629 0.001026
-234.930664062500 13.048393249512 69.028152465820 -0.052343 -0.998629 0.001026
-105.778610229492 6.279832363129 -187.539413452148 -0.052343 -0.998629 0.001026
-240.687774658203 13.350114822388 -65.872894287109 -0.052343 -0.998629 0.001026
-241.426651000977 13.388827323914 190.353347778320 -0.052343 -0.998629 0.001026
-15.721029281616 1.560108304024 -37.078704833984 -0.052343 -0.998629 0.001026
-181.900344848633 10.269189834595 118.449813842773 -0.052343 -0.998629 0.001026
-56.354137420654 3.689602613449 -113.502998352051 -0.052343 -0.998629 0.001026
-66.942222595215 4.244494915009 5.577117919922 -0.052343 -0.998629 0.001026
-87.705474853516 5.332655906677 -116.518882751465 -0.052343 -0.998629 0.001026
-30.151187896729 2.316361188889 -36.440429687500 -0.052343 -0.998629 0.001026
-229.452804565430 12.761307716370 123.675781250000 -0.052343 -0.998629 0.001026
-12.920427322388 1.413341522217 -181.077346801758 -0.052343 -0.998629 0.001026
-161.373947143555 9.193450927734 30.909378051758 -0.052343 -0.998629 0.001026
-234.752792358398 13.039083480835 -193.982421875000 -0.052343 -0.998629 0.001026
-88.326530456543 5.365198612213 30.455337524414 -0.052343 -0.998629 0.001026
-229.784835815430 12.778717994690 -76.063903808594 -0.052343 -0.998629 0.001026
-173.098007202148 9.807885169983 -29.505447387695 -0.052343 -0.998629 0.001026
-132.049606323242 7.656626701355 42.034225463867 -0.052343 -0.998629 0.001026
-192.858032226563 10.843471527100 -187.086456298828 -0.052343 -0.998629 0.001026
-173.541366577148 9.831125259399 -128.296661376953 -0.052343 -0.998629 0.001026
-179.528213500977 10.144880294800 -84.367408752441 -0.052343 -0.998629 0.001026
-223.664367675781 12.457954406738 -3.628585815430 -0.052343 -0.998629 0.001026
-170.684127807617 9.681374549866 99.044723510742 -0.052343 -0.998629 0.001026
-148.601837158203 8.524097442627 -60.182388305664 -0.052343 -0.998629 0.001026
-160.526428222656 9.149031639099 88.495040893555 -0.052343 -0.998629 0.001026
-109.699653625488 6.485321521759 -82.908569335938 -0.052343 -0.998629 0.001026
-236.223236083984 13.116135597229 41.784515380859 -0.052343 -0.998629 0.001026
-132.931198120117 7.702831745148 -15.433349609375 -0.052343 -0.998629 0.001026
-138.935073852539 8.017485618591 -95.838172912598 -0.052343 -0.998629 0.001026
-92.630226135254 5.590754985809 -183.631683349609 -0.052343 -0.998629 0.001026
-207.590682983398 11.615572929382 -95.527679443359 -0.052343 -0.998629 0.001026
-130.252914428711 7.562467575073 -1.868942260742 -0.052343 -0.998629 0.001026
-176.769638061523 10.000310897827 -112.680267333984 -0.052343 -0.998629 0.001026
-198.894363403320 11.159813880920 -2.260772705078 -0.052343 -0.998629 0.001026
-247.936584472656 13.729999542236 150.575302124023 -0.052343 -0.998629 0.001026
-128.461959838867 7.468608856201 -6.396179199219 -0.052343 -0.998629 0.001026
-108.701148986816 6.432988643646 -13.661285400391 -0.052343 -0.998629 0.001026
-131.363357543945 7.620660305023 73.508987426758 -0.052343 -0.998629 0.001026
-219.620864868164 12.246040344238 54.652236938477 -0.052343 -0.998629 0.001026
-202.029663085938 11.324135780334 -187.026641845703 -0.052343 -0.998629 0.001026
-130.546340942383 7.577848911285 -65.817245483398 -0.052343 -0.998629 0.001026
-90.103775024414 5.458340167999 12.080230712891 -0.052343 -0.998629 0.001026
-65.217483520508 4.154113292694 -159.499496459961 -0.052343 -0.998629 0.001026
-72.168029785156 4.518374443054 -128.736816406250 -0.052343 -0.998629 0.001026
-243.316375732422 13.487875938416 -92.151275634766 -0.052343 -0.998629 0.001026
-35.980064392090 2.621844053268 -156.412872314453 -0.052343 -0.998629 0.001026
1.406126976013 0.662514388561 -80.044921875000 -0.052343 -0.998629 0.001026
-223.900512695313 12.470337867737 -168.712005615234 -0.052343 -0.998629 0.001026
-244.201766967773 13.534267425537 152.250228881836 -0.052343 -0.998629 0.001026
-214.178100585938 11.960805892944 -132.331359863281 -0.052343 -0.998629 0.001026
-159.392150878906 9.089594841003 -115.171539306641 -0.052343 -0.998629 0.001026
-16.298706054688 1.590385794640 -110.817153930664 -0.052343 -0.998629 0.001026
-54.130001068115 3.573040008545 -99.086624145508 -0.052343 -0.998629 0.001026
-151.926666259766 8.698348999023 -178.561477661133 -0.052343 -0.998629 0.001026
-88.887046813965 5.394575119019 -13.118392944336 -0.052343 -0.998629 0.001026
-12.264725685120 1.378975987434 -133.117050170898 -0.052343 -0.998629 0.001026
-127.844833374023 7.436272144318 -142.297576904297 -0.052343 -0.998629 0.001026
-162.683593750000 9.262089729309 -46.524383544922 -0.052343 -0.998629 0.001026
-238.593139648438 13.240338325500 7.878021240234 -0.052343 -0.998629 0.001026
-217.772293090820 12.149165153503 -28.005920410156 -0.052343 -0.998629 0.001026
-187.469635009766 10.561064720154 118.906890869141 -0.052343 -0.998629 0.001026
-35.602554321289 2.602055072784 -40.693740844727 -0.052343 -0.998629 0.001026
-68.380012512207 4.319849967957 -64.801605224609 -0.052343 -0.998629 0.001026
-234.817901611328 13.042494773865 -207.100616455078 -0.052343 -0.998629 0.001026
-162.797927856445 9.268076896667 70.152175903320 -0.052343 -0.998629 0.001026
-220.281814575195 12.280681610107 10.823638916016 -0.052343 -0.998629 0.001026
-51.703559875488 3.445870876312 -7.688278198242 -0.052343 -0.998629 0.001026
-147.083374023438 8.444515228271 -0.785095214844 -0.052343 -0.998629 0.001026
-253.932006835938 14.044205665588 193.098373413086 -0.052343 -0.998629 0.001026
6.571267127991 0.391820251942 -69.997138977051 -0.052343 -0.998629 0.001026
-203.022613525391 11.376172065735 -130.261825561523 -0.052343 -0.998629 0.001026
-130.761917114258 7.589143753052 4.296981811523 -0.052343 -0.998629 0.001026
-193.751815795898 10.890300750732 92.383041381836 -0.052343 -0.998629 0.001026
-168.573806762695 9.570778846741 21.285400390625 -0.052343 -0.998629 0.001026
-181.061080932617 10.225210189819 14.614135742188 -0.052343 -0.998629 0.001026
-246.827011108398 13.671854019165 69.277832031250 -0.052343 -0.998629 0.001026
-234.415161132813 13.021387100220 -160.650512695313 -0.052343 -0.998629 0.001026
-232.211929321289 12.905921936035 -196.699920654297 -0.052343 -0.998629 0.001026
-150.776641845703 8.638068199158 70.525955200195 -0.052343 -0.998629 0.001026
-28.941951751709 2.252992391586 -151.876022338867 -0.052343 -0.998629 0.001026
-32.442752838135 2.436459302902 -96.454040527344 -0.052343 -0.998629 0.001026
-129.537078857422 7.524950504303 46.012023925781 -0.052343 -0.998629 0.001026
-123.521186828613 7.209674358368 -35.581695556641 -0.052343 -0.998629 0.001026
-229.822265625000 12.780673980713 54.575820922852 -0.052343 -0.998629 0.001026
-161.212768554688 9.185011863708 -174.868347167969 -0.052343 -0.998629 0.001026
-99.927253723145 5.973173141479 -127.854118347168 -0.052343 -0.998629 0.001026
-99.131942749023 5.931489944458 -60.924545288086 -0.052343 -0.998629 0.001026
-173.063659667969 9.806083679199 -7.358459472656 -0.052343 -0.998629 0.001026
-72.480262756348 4.534739971161 -171.380493164063 -0.052343 -0.998629 0.001026
-189.565292358398 10.670894622803 62.082107543945 -0.052343 -0.998629 0.001026
-48.421287536621 3.273855686188 -23.122024536133 -0.052343 -0.998629 0.001026
-183.400939941406 10.347834587097 61.485687255859 -0.052343 -0.998629 0.001026
-111.512672424316 6.580334663391 -16.393600463867 -0.052343 -0.998629 0.001026
-212.025177001953 11.847963333130 149.834808349609 -0.052343 -0.998629 0.001026
4.238913059235 0.514057993889 -170.676528930664 -0.052343 -0.998629 0.001026
-195.763870239258 10.995744705200 136.793350219727 -0.052343 -0.998629 0.001026
-113.938835144043 6.707489013672 -121.074310302734 -0.052343 -0.998629 0.001026
-70.584022521973 4.435354232788 20.161056518555 -0.052343 -0.998629 0.001026
-142.520477294922 8.205390930176 -179.780609130859 -0.052343 -0.998629 0.001026
-28.430967330933 2.226212024689 -131.254165649414 -0.052343 -0.998629 0.001026
-27.479915618896 2.176365852356 -50.268676757813 -0.052343 -0.998629 0.001026
-31.244379043579 2.373658895493 -171.498458862305 -0.052343 -0.998629 0.001026
-206.746002197266 11.571309089661 -207.296218872070 -0.052343 -0.998629 0.001026
-40.986568450928 2.884223222733 -119.962112426758 -0.052343 -0.998629 0.001026
-207.561981201172 11.614066123962 -41.579559326172 -0.052343 -0.998629 0.001026
13.740736007690 0.016085341573 -74.692962646484 -0.052343 -0.998629 0.001026
-85.999160766602 5.243233203888 -144.883880615234 -0.052343 -0.998629 0.001026
-191.842269897461 10.790224075317 118.076339721680 -0.052343 -0.998629 0.001026
-154.627578735352 8.839895248413 -120.923789978027 -0.052343 -0.998629 0.001026
-251.009185791016 13.891027450562 156.632263183594 -0.052343 -0.998629 0.001026
-238.291839599609 13.224548339844 -8.355789184570 -0.052343 -0.998629 0.001026
-194.436431884766 10.926190376282 -149.307739257813 -0.052343 -0.998629 0.001026
-116.692245483398 6.851788043976 -114.136039733887 -0.052343 -0.998629 0.001026
-229.256561279297 12.751037597656 -200.096878051758 -0.052343 -0.998629 0.001026
-220.930572509766 12.314687728882 -126.262779235840 -0.052343 -0.998629 0.001026
28.308897018433 -0.747395277023 -165.691207885742 -0.052343 -0.998629 0.001026
-10.847988128662 1.304725527763 -86.294410705566 -0.052343 -0.998629 0.001026
-208.324722290039 11.654035568237 28.667724609375 -0.052343 -0.998629 0.001026
-215.195693969727 12.014130592346 -21.358123779297 -0.052343 -0.998629 0.001026
-210.885330200195 11.788234710693 -23.818939208984 -0.052343 -0.998629 0.001026
-149.789550781250 8.586338996887 27.031906127930 -0.052343 -0.998629 0.001026
-181.161865234375 10.230486869812 122.080505371094 -0.052343 -0.998629 0.001026
-237.068069458008 13.160417556763 -98.082633972168 -0.052343 -0.998629 0.001026
-88.354095458984 5.366646766663 -53.753112792969 -0.052343 -0.998629 0.001026
-159.908416748047 9.116644859314 38.922348022461 -0.052343 -0.998629 0.001026
-88.349845886230 5.366419792175 31.186355590820 -0.052343 -0.998629 0.001026
-57.905506134033 3.770909070969 -172.002227783203 -0.052343 -0.998629 0.001026
-88.669700622559 5.383188724518 -107.230422973633 -0.052343 -0.998629 0.001026
-89.794059753418 5.442111968994 -48.061447143555 -0.052343 -0.998629 0.001026
-116.005325317383 6.815781593323 51.518569946289 -0.052343 -0.998629 0.001026
-153.950576782227 8.804413795471 -86.725151062012 -0.052343 -0.998629 0.001026
-205.071868896484 11.483564376831 -23.538299560547 -0.052343 -0.998629 0.001026
-100.749191284180 6.016244888306 -20.021331787109 -0.052343 -0.998629 0.001026
5.993444442749 0.422103315592 -88.408706665039 -0.052343 -0.998629 0.001026
-227.318695068359 12.649475097656 -127.091613769531 -0.052343 -0.998629 0.001026
-102.738624572754 6.120508193970 -66.180984497070 -0.052343 -0.998629 0.001026
-44.580863952637 3.072587490082 -10.324050903320 -0.052343 -0.998629 0.001026
-220.044616699219 12.268251419067 -11.270721435547 -0.052343 -0.998629 0.001026
-236.908386230469 13.152047157288 -81.672286987305 -0.052343 -0.998629 0.001026
-181.141906738281 10.229441642761 121.005966186523 -0.052343 -0.998629 0.001026
-36.680343627930 2.658540010452 -49.786788940430 -0.052343 -0.998629 0.001026
-139.047943115234 8.023403167725 -169.559127807617 -0.052343 -0.998629 0.001026
-125.074363708496 7.291078090668 -145.817428588867 -0.052343 -0.998629 0.001026
-91.165016174316 5.513961315155 -52.225875854492 -0.052343 -0.998629 0.001026
-174.995315551758 9.907326698303 -196.440246582031 -0.052343 -0.998629 0.001026
-197.648269653320 11.094507217407 13.795486450195 -0.052343 -0.998629 0.001026
41.694828033447 -1.448923230171 -142.239746093750 -0.052343 -0.998629 0.001026
21.370420455933 -0.383765965700 -178.675750732422 -0.052343 -0.998629 0.001026
-231.380722045898 12.862356185913 -109.599418640137 -0.052343 -0.998629 0.001026
-211.364776611328 11.813367843628 -188.124755859375 -0.052343 -0.998629 0.001026
-1.771469235420 0.829047799110 -136.371871948242 -0.052343 -0.998629 0.001026
-232.251449584961 12.907983779907 -15.784439086914 -0.052343 -0.998629 0.001026
-140.193542480469 8.083439826965 -137.784057617188 -0.052343 -0.998629 0.001026
-237.344482421875 13.174892425537 138.956848144531 -0.052343 -0.998629 0.001026
5.611817836761 0.442105352879 -113.187332153320 -0.052343 -0.998629 0.001026
-212.105819702148 11.852193832397 62.642593383789 -0.052343 -0.998629 0.001026
-159.967453002930 9.119743347168 -67.328338623047 -0.052343 -0.998629 0.001026
-97.316261291504 5.836328983307 47.104843139648 -0.052343 -0.998629 0.001026
-27.572551727295 2.181226015091 -159.239257812500 -0.052343 -0.998629 0.001026
-174.354095458984 9.873713493347 -33.861358642578 -0.052343 -0.998629 0.001026
-161.812698364258 9.216447830200 -37.851974487305 -0.052343 -0.998629 0.001026
94.606430053711 -4.221902847290 -146.949584960938 -0.052343 -0.998629 0.001026
-84.957473754883 5.188633918762 22.238143920898 -0.052343 -0.998629 0.001026
-173.938491821289 9.851937294006 -142.382263183594 -0.052343 -0.998629 0.001026
-229.795059204102 12.779243469238 150.242538452148 -0.052343 -0.998629 0.001026
-41.200828552246 2.895450353622 -80.404075622559 -0.052343 -0.998629 0.001026
39.467262268066 -1.332183122635 -135.543838500977 -0.052343 -0.998629 0.001026
-120.010841369629 7.025712013245 -186.544342041016 -0.052343 -0.998629 0.001026
-206.783477783203 11.573269844055 -133.276245117188 -0.052343 -0.998629 0.001026
-57.493347167969 3.749306201935 -115.432144165039 -0.052343 -0.998629 0.001026
-144.578445434570 8.313241958618 -116.540039062500 -0.052343 -0.998629 0.001026
-78.764724731445 4.864089488983 -71.216766357422 -0.052343 -0.998629 0.001026
-202.769897460938 11.362930297852 -187.290908813477 -0.052343 -0.998629 0.001026
-212.385253906250 11.866849899292 -184.626937866211 -0.052343 -0.998629 0.001026
-222.490783691406 12.396452903748 -77.039428710938 -0.052343 -0.998629 0.001026
-62.264278411865 3.999338626862 -79.574584960938 -0.052343 -0.998629 0.001026
-15.067956924438 1.525883555412 -51.841262817383 -0.052343 -0.998629 0.001026
-100.870185852051 6.022582054138 42.668670654297 -0.052343 -0.998629 0.001026
-192.763885498047 10.838531494141 -60.095672607422 -0.052343 -0.998629 0.001026
-78.887123107910 4.870508193970 -159.650894165039 -0.052343 -0.998629 0.001026
-73.064590454102 4.565360546112 -106.521896362305 -0.052343 -0.998629 0.001026
-158.940109252930 9.065896034241 107.652236938477 -0.052343 -0.998629 0.001026
-218.257965087891 12.174613952637 70.106048583984 -0.052343 -0.998629 0.001026
-1.987446308136 0.840367496014 -165.266418457031 -0.052343 -0.998629 0.001026
-79.198455810547 4.886826038361 -193.195129394531 -0.052343 -0.998629 0.001026
-237.018661499023 13.157817840576 122.302276611328 -0.052343 -0.998629 0.001026
-123.006820678711 7.182714939117 24.802658081055 -0.052343 -0.998629 0.001026
73.394943237305 -3.110255479813 -149.237274169922 -0.052343 -0.998629 0.001026
-124.602752685547 7.266364097595 -192.617095947266 -0.052343 -0.998629 0.001026
-148.400207519531 8.513524055481 71.078994750977 -0.052343 -0.998629 0.001026
-113.829559326172 6.701760768890 -86.152816772461 -0.052343 -0.998629 0.001026
-223.338928222656 12.440903663635 -104.342895507813 -0.052343 -0.998629 0.001026
16.581432342529 -0.132786944509 -120.517974853516 -0.052343 -0.998629 0.001026
-176.788238525391 10.001275062561 112.912719726563 -0.052343 -0.998629 0.001026
-20.452873229980 1.808093786240 -45.812820434570 -0.052343 -0.998629 0.001026
-170.041122436523 9.647680282593 0.975463867188 -0.052343 -0.998629 0.001026
99.103851318359 -4.457602977753 -157.941452026367 -0.052343 -0.998629 0.001026
-202.213027954102 11.333742141724 -109.613807678223 -0.052343 -0.998629 0.001026
-174.626571655273 9.887992858887 -5.229949951172 -0.052343 -0.998629 0.001026
44.111061096191 -1.575553536415 -145.452911376953 -0.052343 -0.998629 0.001026
15.327569961548 -0.067073151469 -156.009872436523 -0.052343 -0.998629 0.001026
-238.917678833008 13.257345199585 23.748916625977 -0.052343 -0.998629 0.001026
-163.585311889648 9.309350967407 -138.532241821289 -0.052343 -0.998629 0.001026
0.744013607502 0.697218477726 -181.721298217773 -0.052343 -0.998629 0.001026
-194.915695190430 10.951303482056 -79.232620239258 -0.052343 -0.998629 0.001026
-181.527023315430 10.249629974365 -9.703598022461 -0.052343 -0.998629 0.001026
20.736417770386 -0.350540608168 -147.997116088867 -0.052343 -0.998629 0.001026
-126.388610839844 7.359951496124 -73.486999511719 -0.052343 -0.998629 0.001026
-26.543210983276 2.127280235291 -161.426391601563 -0.052343 -0.998629 0.001026
-130.334716796875 7.566753864288 13.721832275391 -0.052343 -0.998629 0.001026
-205.281402587891 11.494542121887 31.890853881836 -0.052343 -0.998629 0.001026
-18.516540527344 1.706619501114 -134.260330200195 -0.052343 -0.998629 0.001026
-226.438323974609 12.603339195251 -168.696411132813 -0.052343 -0.998629 0.001026
-108.127090454102 6.402902603149 6.943435668945 -0.052343 -0.998629 0.001026
-102.187637329102 6.091629981995 -13.970947265625 -0.052343 -0.998629 0.001026
-197.712020874023 11.097846031189 85.950378417969 -0.052343 -0.998629 0.001026
71.348228454590 -3.002992391586 -175.048721313477 -0.052343 -0.998629 0.001026
-240.956054687500 13.364168167114 114.421432495117 -0.052343 -0.998629 0.001026
-242.347091674805 13.437076568604 -54.921630859375 -0.052343 -0.998629 0.001026
-94.782356262207 5.703539371490 -98.155502319336 -0.052343 -0.998629 0.001026
-17.495317459106 1.653095245361 -40.000823974609 -0.052343 -0.998629 0.001026
24.835834503174 -0.565383911133 -103.118286132813 -0.052343 -0.998629 0.001026
-39.804679870605 2.822278738022 -18.710144042969 -0.052343 -0.998629 0.001026
-214.835021972656 11.995230674744 -61.783660888672 -0.052343 -0.998629 0.001026
-85.069839477539 5.194522857666 21.386734008789 -0.052343 -0.998629 0.001026
-65.844490051270 4.186969757080 -88.741928100586 -0.052343 -0.998629 0.001026
-37.663711547852 2.710075378418 -31.739852905273 -0.052343 -0.998629 0.001026
-2.375802993774 0.860720276833 -157.403350830078 -0.052343 -0.998629 0.001026
-14.879313468933 1.515997409821 -62.537406921387 -0.052343 -0.998629 0.001026
-23.023223876953 1.942804694176 -137.830474853516 -0.052343 -0.998629 0.001026
-246.802276611328 13.670557022095 76.599105834961 -0.052343 -0.998629 0.001026
-57.141529083252 3.730867385864 -81.143997192383 -0.052343 -0.998629 0.001026
-163.843139648438 9.322852134705 104.209487915039 -0.052343 -0.998629 0.001026
-219.968963623047 12.264284133911 37.463058471680 -0.052343 -0.998629 0.001026
-13.936563491821 1.466594457626 -155.803665161133 -0.052343 -0.998629 0.001026
-225.104614257813 12.533432960510 20.129394531250 -0.052343 -0.998629 0.001026
-40.465259552002 2.856905698776 -183.966705322266 -0.052343 -0.998629 0.001026
-13.606900215149 1.449316978455 -154.615173339844 -0.052343 -0.998629 0.001026
-232.478912353516 12.919908523560 -82.228744506836 -0.052343 -0.998629 0.001026
69.816734313965 -2.922730684280 -130.956832885742 -0.052343 -0.998629 0.001026
-105.121124267578 6.245369434357 -59.637512207031 -0.052343 -0.998629 0.001026
-199.324005126953 11.182326316833 108.978912353516 -0.052343 -0.998629 0.001026
-38.975456237793 2.778823137283 -76.753013610840 -0.052343 -0.998629 0.001026
-148.724594116211 8.530527114868 -8.784149169922 -0.052343 -0.998629 0.001026
72.290725708008 -3.052386760712 -138.015243530273 -0.052343 -0.998629 0.001026
-115.171852111816 6.772109985352 -144.841644287109 -0.052343 -0.998629 0.001026
-118.695274353027 6.956761360168 -81.953346252441 -0.052343 -0.998629 0.001026
-227.718658447266 12.670424461365 142.363204956055 -0.052343 -0.998629 0.001026
-206.647933959961 11.566155433655 114.911132812500 -0.052343 -0.998629 0.001026
-203.313476562500 11.391416549683 -175.094726562500 -0.052343 -0.998629 0.001026
-128.046875000000 7.446855068207 -22.971267700195 -0.052343 -0.998629 0.001026
-58.546089172363 3.804475545883 -51.032348632813 -0.052343 -0.998629 0.001026
-165.548797607422 9.412244796753 43.350112915039 -0.052343 -0.998629 0.001026
-231.343963623047 12.860420227051 95.669540405273 -0.052343 -0.998629 0.001026
-231.141448974609 12.849802970886 178.106582641602 -0.052343 -0.998629 0.001026
-29.445716857910 2.279389142990 -38.208038330078 -0.052343 -0.998629 0.001026
-159.834045410156 9.112752914429 -73.586288452148 -0.052343 -0.998629 0.001026
74.173179626465 -3.151039600372 -171.051757812500 -0.052343 -0.998629 0.001026
-195.568069458008 10.985492706299 -85.920837402344 -0.052343 -0.998629 0.001026
-227.395950317383 12.653525352478 -158.050811767578 -0.052343 -0.998629 0.001026
-199.736221313477 11.203944206238 -210.199981689453 -0.052343 -0.998629 0.001026
-151.803909301758 8.691903114319 90.815338134766 -0.052343 -0.998629 0.001026
-100.994956970215 6.029129028320 -115.345420837402 -0.052343 -0.998629 0.001026
-171.527770996094 9.725589752197 54.051620483398 -0.052343 -0.998629 0.001026
-212.037521362305 11.848626136780 -210.623168945313 -0.052343 -0.998629 0.001026
-217.655059814453 12.143019676208 -8.218063354492 -0.052343 -0.998629 0.001026
-98.338180541992 5.889887809753 7.371551513672 -0.052343 -0.998629 0.001026
-200.527816772461 11.245412826538 147.631164550781 -0.052343 -0.998629 0.001026
-195.555908203125 10.984851837158 25.853851318359 -0.052343 -0.998629 0.001026
-240.435867309570 13.336913108826 -39.695465087891 -0.052343 -0.998629 0.001026
-128.773117065430 7.484916210175 -12.302230834961 -0.052343 -0.998629 0.001026
-200.821395874023 11.260799407959 123.398895263672 -0.052343 -0.998629 0.001026
-137.014862060547 7.916846752167 -8.880508422852 -0.052343 -0.998629 0.001026
-127.935050964355 7.441001415253 -160.320632934570 -0.052343 -0.998629 0.001026
-182.401306152344 10.295450210571 -20.223571777344 -0.052343 -0.998629 0.001026
-191.058868408203 10.749168395996 96.711456298828 -0.052343 -0.998629 0.001026
-238.575942993164 13.239442825317 -153.058929443359 -0.052343 -0.998629 0.001026
-224.721328735352 12.513350486755 -72.687377929688 -0.052343 -0.998629 0.001026
-239.833450317383 13.305335998535 106.285858154297 -0.052343 -0.998629 0.001026
-240.115371704102 13.320122718811 -181.734817504883 -0.052343 -0.998629 0.001026
-23.783063888550 1.982624053955 -78.268783569336 -0.052343 -0.998629 0.001026
-217.823730468750 12.151862144470 -46.400512695313 -0.052343 -0.998629 0.001026
-162.220779418945 9.237838745117 -129.049667358398 -0.052343 -0.998629 0.001026
-163.667068481445 9.313631057739 -46.625488281250 -0.052343 -0.998629 0.001026
-65.332870483398 4.160154819489 -43.728286743164 -0.052343 -0.998629 0.001026
22.457065582275 -0.440717369318 -116.693695068359 -0.052343 -0.998629 0.001026
-244.701568603516 13.560462951660 109.214996337891 -0.052343 -0.998629 0.001026
-187.671295166016 10.571632385254 116.362716674805 -0.052343 -0.998629 0.001026
-172.146286010742 9.758004188538 52.786788940430 -0.052343 -0.998629 0.001026
-202.409301757813 11.344020843506 79.123443603516 -0.052343 -0.998629 0.001026
-108.628273010254 6.429173946381 -119.855056762695 -0.052343 -0.998629 0.001026
-174.611892700195 9.887226104736 -71.484100341797 -0.052343 -0.998629 0.001026
-127.148200988770 7.399753570557 73.986846923828 -0.052343 -0.998629 0.001026
-153.674118041992 8.789922714233 -32.289093017578 -0.052343 -0.998629 0.001026
-139.423797607422 8.043088912964 87.137649536133 -0.052343 -0.998629 0.001026
-204.181228637695 11.436888694763 -41.054519653320 -0.052343 -0.998629 0.001026
-150.314544677734 8.613849639893 75.744644165039 -0.052343 -0.998629 0.001026
-187.314132690430 10.552918434143 22.579833984375 -0.052343 -0.998629 0.001026
-108.096900939941 6.401319503784 28.397552490234 -0.052343 -0.998629 0.001026
-236.614883422852 13.136661529541 15.913421630859 -0.052343 -0.998629 0.001026
-76.400314331055 4.740180015564 -147.327056884766 -0.052343 -0.998629 0.001026
-148.163208007813 8.501115798950 -200.888244628906 -0.052343 -0.998629 0.001026
-187.092163085938 10.541287422180 -37.271423339844 -0.052343 -0.998629 0.001026
-20.444046020508 1.807636737823 -163.765228271484 -0.052343 -0.998629 0.001026
-237.481994628906 13.182111740112 -144.380706787109 -0.052343 -0.998629 0.001026
-27.499736785889 2.177405834198 -64.383010864258 -0.052343 -0.998629 0.001026
-64.985595703125 4.141958236694 -112.346954345703 -0.052343 -0.998629 0.001026
-71.808570861816 4.499537944794 -183.822021484375 -0.052343 -0.998629 0.001026
-216.683975219727 12.092122077942 96.716674804688 -0.052343 -0.998629 0.001026
-138.098434448242 7.973641395569 -159.458190917969 -0.052343 -0.998629 0.001026
-163.073974609375 9.282548904419 -38.866821289063 -0.052343 -0.998629 0.001026
-181.564254760742 10.251587867737 -140.477600097656 -0.052343 -0.998629 0.001026
-205.826248168945 11.523096084595 48.143753051758 -0.052343 -0.998629 0.001026
-218.536376953125 12.189208984375 -8.690322875977 -0.052343 -0.998629 0.001026
64.768112182617 -2.658142328262 -175.325180053711 -0.052343 -0.998629 0.001026
-195.526901245117 10.983326911926 139.216766357422 -0.052343 -0.998629 0.001026
-162.672592163086 9.261511802673 -11.262557983398 -0.052343 -0.998629 0.001026
-239.588439941406 13.292497634888 44.029617309570 -0.052343 -0.998629 0.001026
-205.343215942383 11.497792243958 -195.733093261719 -0.052343 -0.998629 0.001026
-112.093399047852 6.610770702362 -62.759887695313 -0.052343 -0.998629 0.001026
-203.113525390625 11.380937576294 -167.496398925781 -0.052343 -0.998629 0.001026
37.840854644775 -1.246945858002 -129.603744506836 -0.052343 -0.998629 0.001026
-83.134872436523 5.093118667603 -41.813888549805 -0.052343 -0.998629 0.001026
-254.700988769531 14.084506988525 191.526840209961 -0.052343 -0.998629 0.001026
-226.912643432617 12.628184318542 108.914901733398 -0.052343 -0.998629 0.001026
-232.654022216797 12.929084777832 -61.386718750000 -0.052343 -0.998629 0.001026
-169.620529174805 9.625645637512 -192.156478881836 -0.052343 -0.998629 0.001026
-99.001838684082 5.924671649933 -70.835311889648 -0.052343 -0.998629 0.001026
-73.098114013672 4.567113399506 -28.727172851563 -0.052343 -0.998629 0.001026
-130.447586059570 7.572670459747 -2.217910766602 -0.052343 -0.998629 0.001026
-133.473937988281 7.731283187866 -186.314300537109 -0.052343 -0.998629 0.001026
-84.269973754883 5.152613162994 -195.615997314453 -0.052343 -0.998629 0.001026
-204.645294189453 11.461205482483 39.215774536133 -0.052343 -0.998629 0.001026
-210.642868041992 11.775527000427 -5.177871704102 -0.052343 -0.998629 0.001026
-165.624176025391 9.416196823120 6.570327758789 -0.052343 -0.998629 0.001026
48.814498901367 -1.822049260139 -164.666961669922 -0.052343 -0.998629 0.001026
-177.175155639648 10.021555900574 40.477554321289 -0.052343 -0.998629 0.001026
-1.298655748367 0.804265916348 -73.516334533691 -0.052343 -0.998629 0.001026
-243.624771118164 13.504038810730 -106.798416137695 -0.052343 -0.998629 0.001026
-169.781158447266 9.634055137634 -1.070068359375 -0.052343 -0.998629 0.001026
-202.933151245117 11.371479034424 -22.138473510742 -0.052343 -0.998629 0.001026
-193.765686035156 10.891026496887 107.163879394531 -0.052343 -0.998629 0.001026
-136.307556152344 7.879785537720 -159.548522949219 -0.052343 -0.998629 0.001026
-239.516159057617 13.288710594177 -2.326370239258 -0.052343 -0.998629 0.001026
-43.181560516357 2.999258279800 -142.138183593750 -0.052343 -0.998629 0.001026
-145.694824218750 8.371742248535 43.243911743164 -0.052343 -0.998629 0.001026
-32.235427856445 2.425596714020 -161.797180175781 -0.052343 -0.998629 0.001026
-200.018905639648 11.218744277954 93.715698242188 -0.052343 -0.998629 0.001026
-242.311019897461 13.435175895691 191.026000976563 -0.052343 -0.998629 0.001026
-94.233589172363 5.674780368805 -103.649620056152 -0.052343 -0.998629 0.001026
-98.886116027832 5.918604850769 -13.248443603516 -0.052343 -0.998629 0.001026
-57.539794921875 3.751743316650 -180.016815185547 -0.052343 -0.998629 0.001026
-33.295799255371 2.481167554855 -138.331909179688 -0.052343 -0.998629 0.001026
64.911491394043 -2.665657758713 -162.138259887695 -0.052343 -0.998629 0.001026
-129.780273437500 7.537699222565 -35.246795654297 -0.052343 -0.998629 0.001026
-121.232818603516 7.089753150940 -199.385192871094 -0.052343 -0.998629 0.001026
-212.252868652344 11.859900474548 58.994094848633 -0.052343 -0.998629 0.001026
-8.245056152344 1.168310999870 -64.655883789063 -0.052343 -0.998629 0.001026
-206.831604003906 11.575789451599 -55.925460815430 -0.052343 -0.998629 0.001026
-211.085525512695 11.798728942871 -92.338455200195 -0.052343 -0.998629 0.001026
-112.671989440918 6.641098022461 -152.737121582031 -0.052343 -0.998629 0.001026
-211.719192504883 11.831928253174 128.757064819336 -0.052343 -0.998629 0.001026
-150.148803710938 8.605171203613 -83.990913391113 -0.052343 -0.998629 0.001026
0.761558532715 0.696297705173 -143.812820434570 -0.052343 -0.998629 0.001026
-193.570236206055 10.880795478821 -150.978515625000 -0.052343 -0.998629 0.001026
-5.461103439331 1.022412776947 -121.588813781738 -0.052343 -0.998629 0.001026
-17.408935546875 1.648573160172 -153.598892211914 -0.052343 -0.998629 0.001026
-160.132446289063 9.128386497498 34.880798339844 -0.052343 -0.998629 0.001026
-91.048065185547 5.507835388184 -140.929565429688 -0.052343 -0.998629 0.001026
-76.528846740723 4.746917247772 -188.842330932617 -0.052343 -0.998629 0.001026
-10.229618072510 1.272319316864 -114.121353149414 -0.052343 -0.998629 0.001026
-36.848026275635 2.667330741882 -128.018493652344 -0.052343 -0.998629 0.001026
-75.066780090332 4.670289516449 -95.731422424316 -0.052343 -0.998629 0.001026
-72.956474304199 4.559692382813 -72.731834411621 -0.052343 -0.998629 0.001026
25.594142913818 -0.605122506618 -155.908233642578 -0.052343 -0.998629 0.001026
-42.729812622070 2.975583076477 -123.175003051758 -0.052343 -0.998629 0.001026
-102.625457763672 6.114576339722 -33.787414550781 -0.052343 -0.998629 0.001026
-112.046119689941 6.608296394348 -137.807510375977 -0.052343 -0.998629 0.001026
-170.096969604492 9.650601387024 113.850067138672 -0.052343 -0.998629 0.001026
-152.880050659180 8.748305320740 1.324768066406 -0.052343 -0.998629 0.001026
-180.394897460938 10.190293312073 88.268585205078 -0.052343 -0.998629 0.001026
-156.339111328125 8.929596900940 -202.994186401367 -0.052343 -0.998629 0.001026
-119.653633117676 7.006980895996 54.718902587891 -0.052343 -0.998629 0.001026
21.833290100098 -0.408023476601 -169.738327026367 -0.052343 -0.998629 0.001026
-183.519607543945 10.354051589966 100.399642944336 -0.052343 -0.998629 0.001026
-20.399961471558 1.805324912071 -116.401855468750 -0.052343 -0.998629 0.001026
-199.565170288086 11.194971084595 -50.212387084961 -0.052343 -0.998629 0.001026
-174.296157836914 9.870673179626 41.167465209961 -0.052343 -0.998629 0.001026
10.513577461243 0.185214281082 -124.551162719727 -0.052343 -0.998629 0.001026
-145.656631469727 8.369741439819 33.302536010742 -0.052343 -0.998629 0.001026
-50.969619750977 3.407409906387 -66.999740600586 -0.052343 -0.998629 0.001026
-87.824928283691 5.338916301727 -122.341377258301 -0.052343 -0.998629 0.001026
-107.614967346191 6.376071453094 -187.834579467773 -0.052343 -0.998629 0.001026
-138.397964477539 7.989331245422 26.458160400391 -0.052343 -0.998629 0.001026
-223.576293945313 12.453345298767 -151.507080078125 -0.052343 -0.998629 0.001026
-100.987022399902 6.028711318970 -77.652915954590 -0.052343 -0.998629 0.001026
-251.578460693359 13.920862197876 187.761108398438 -0.052343 -0.998629 0.001026
-147.947921752930 8.489825248718 -27.321212768555 -0.052343 -0.998629 0.001026
-97.808250427246 5.862116813660 -28.061187744141 -0.052343 -0.998629 0.001026
-210.385269165039 11.762029647827 -91.505203247070 -0.052343 -0.998629 0.001026
-169.686492919922 9.629099845886 -133.541976928711 -0.052343 -0.998629 0.001026
-201.316329956055 11.286749839783 -140.980316162109 -0.052343 -0.998629 0.001026
-148.671401977539 8.527738571167 32.655410766602 -0.052343 -0.998629 0.001026
-180.279113769531 10.184230804443 -31.336868286133 -0.052343 -0.998629 0.001026
-251.472229003906 13.915302276611 16.420791625977 -0.052343 -0.998629 0.001026
-250.043457031250 13.840428352356 -85.259223937988 -0.052343 -0.998629 0.001026
-250.426773071289 13.860514640808 -53.529968261719 -0.052343 -0.998629 0.001026
-250.937561035156 13.887287139893 -135.488403320313 -0.052343 -0.998629 0.001026
-254.774307250977 14.088359832764 -69.036346435547 -0.052343 -0.998629 0.001026
-251.767852783203 13.930793762207 29.995101928711 -0.052343 -0.998629 0.001026
-253.207138061523 14.006219863892 104.613952636719 -0.052343 -0.998629 0.001026
-249.854461669922 13.830528259277 -195.601654052734 -0.052343 -0.998629 0.001026
-255.272766113281 14.114485740662 -109.262710571289 -0.052343 -0.998629 0.001026
-252.929946899414 13.991699218750 -27.134231567383 -0.052343 -0.998629 0.001026
-253.659805297852 14.029945373535 70.600738525391 -0.052343 -0.998629 0.001026
-252.307723999023 13.959092140198 -57.874389648438 -0.052343 -0.998629 0.001026
-253.268524169922 14.009437561035 109.123092651367 -0.052343 -0.998629 0.001026
-253.846282958984 14.039718627930 62.764205932617 -0.052343 -0.998629 0.001026
-251.752609252930 13.930003166199 -145.384674072266 -0.052343 -0.998629 0.001026
-253.346130371094 14.013508796692 9.856887817383 -0.052343 -0.998629 0.001026
-255.521484375000 14.127513885498 29.908569335938 -0.052343 -0.998629 0.001026
-247.865631103516 13.726295471191 -160.413009643555 -0.052343 -0.998629 0.001026
-252.238510131836 13.955461502075 -12.232131958008 -0.052343 -0.998629 0.001026
-254.900207519531 14.094963073730 -174.859375000000 -0.052343 -0.998629 0.001026
-247.122985839844 13.687374114990 -140.360534667969 -0.052343 -0.998629 0.001026
25.386703491211 -0.594259738922 27.083084106445 -0.052343 -0.998629 0.001026
-10.837745666504 1.304183006287 28.741149902344 -0.052343 -0.998629 0.001026
-131.595672607422 7.632831096649 176.792388916016 -0.052343 -0.998629 0.001026
78.567138671875 -3.381328344345 39.349475860596 -0.052343 -0.998629 0.001026
105.259452819824 -4.780216217041 117.797988891602 -0.052343 -0.998629 0.001026
7.254692077637 0.355996131897 76.720832824707 -0.052343 -0.998629 0.001026
92.845718383789 -4.129639625549 96.995986938477 -0.052343 -0.998629 0.001026
82.566108703613 -3.590902090073 -42.438632965088 -0.052343 -0.998629 0.001026
-9.718772888184 1.245535373688 124.745292663574 -0.052343 -0.998629 0.001026
116.440696716309 -5.366200447083 112.528358459473 -0.052343 -0.998629 0.001026
-47.567619323730 3.229108810425 154.230957031250 -0.052343 -0.998629 0.001026
4.105033874512 0.521065711975 14.154594421387 -0.052343 -0.998629 0.001026
49.811698913574 -1.874323368073 114.355377197266 -0.052343 -0.998629 0.001026
-162.042205810547 9.228466987610 145.992523193359 -0.052343 -0.998629 0.001026
-17.075416564941 1.631085872650 21.260520935059 -0.052343 -0.998629 0.001026
-25.618324279785 2.078794956207 149.267761230469 -0.052343 -0.998629 0.001026
117.336730957031 -5.413151264191 -83.780967712402 -0.052343 -0.998629 0.001026
102.981140136719 -4.660813331604 84.642181396484 -0.052343 -0.998629 0.001026
41.643859863281 -1.446263313293 81.864555358887 -0.052343 -0.998629 0.001026
108.605049133301 -4.955549716949 73.205795288086 -0.052343 -0.998629 0.001026
88.611976623535 -3.907755136490 21.715673446655 -0.052343 -0.998629 0.001026
-108.089179992676 6.400908946991 128.139602661133 -0.052343 -0.998629 0.001026
47.154228210449 -1.735044717789 -38.795440673828 -0.052343 -0.998629 0.001026
-152.007385253906 8.702562332153 165.757232666016 -0.052343 -0.998629 0.001026
-71.576683044434 4.487370491028 128.638916015625 -0.052343 -0.998629 0.001026
-207.522857666016 11.612003326416 205.954223632813 -0.052343 -0.998629 0.001026
-64.491889953613 4.116075992584 47.102722167969 -0.052343 -0.998629 0.001026
-70.639396667480 4.438250541687 111.187408447266 -0.052343 -0.998629 0.001026
32.976341247559 -0.992017269135 49.437416076660 -0.052343 -0.998629 0.001026
37.085052490234 -1.207341670990 -26.488121032715 -0.052343 -0.998629 0.001026
74.899803161621 -3.189133882523 94.568000793457 -0.052343 -0.998629 0.001026
95.113403320313 -4.248477935791 -37.483531951904 -0.052343 -0.998629 0.001026
77.812019348145 -3.341752767563 0.841457366943 -0.052343 -0.998629 0.001026
-97.749870300293 5.859051227570 75.614837646484 -0.052343 -0.998629 0.001026
-37.073326110840 2.679128646851 77.255722045898 -0.052343 -0.998629 0.001026
-90.367683410645 5.472167968750 82.876365661621 -0.052343 -0.998629 0.001026
-31.484504699707 2.386228561401 151.662948608398 -0.052343 -0.998629 0.001026
-82.973762512207 5.084665775299 128.947418212891 -0.052343 -0.998629 0.001026
-11.326927185059 1.329818248749 60.250602722168 -0.052343 -0.998629 0.001026
