//X Y Z Nx Ny Nz
600
154.513031005859 -278.482666015625 151.808746337891 0.992394 0.123096 0.001089
158.009078979492 -306.946624755859 154.247131347656 0.992394 0.123096 0.001089
163.619598388672 -352.625946044922 161.286666870117 0.992394 0.123096 0.001089
164.842712402344 -362.584289550781 160.547332763672 0.992394 0.123096 0.001089
155.980392456055 -290.429565429688 156.007461547852 0.992394 0.123096 0.001089
147.259796142578 -219.428741455078 141.338287353516 0.992394 0.123096 0.001089
149.578216552734 -238.304626464844 144.497848510742 0.992394 0.123096 0.001089
134.393722534180 -114.676513671875 162.202133178711 0.992394 0.123096 0.001089
148.584976196289 -230.218093872070 160.367004394531 0.992394 0.123096 0.001089
139.858047485352 -159.165588378906 151.872634887695 0.992394 0.123096 0.001089
153.167297363281 -267.526062011719 154.000808715820 0.992394 0.123096 0.001089
148.993103027344 -233.540939331055 161.369705200195 0.992394 0.123096 0.001089
153.317459106445 -268.748596191406 144.161026000977 0.992394 0.123096 0.001089
144.883285522461 -200.079833984375 152.518081665039 0.992394 0.123096 0.001089
145.847076416016 -207.926712036133 150.341735839844 0.992394 0.123096 0.001089
146.395416259766 -212.391204833984 155.162261962891 0.992394 0.123096 0.001089
139.102737426758 -153.016052246094 163.161071777344 0.992394 0.123096 0.001089
159.166320800781 -316.368469238281 151.805908203125 0.992394 0.123096 0.001089
142.753219604492 -182.737411499023 160.409927368164 0.992394 0.123096 0.001089
144.236694335938 -194.815338134766 144.302093505859 0.992394 0.123096 0.001089
147.528717041016 -221.618225097656 147.957046508789 0.992394 0.123096 0.001089
147.911056518555 -224.731109619141 156.572586059570 0.992394 0.123096 0.001089
146.410369873047 -212.512847900391 156.160400390625 0.992394 0.123096 0.001089
144.955245971680 -200.665618896484 156.829544067383 0.992394 0.123096 0.001089
151.744781494141 -255.944305419922 142.354476928711 0.992394 0.123096 0.001089
142.981018066406 -184.592071533203 145.440719604492 0.992394 0.123096 0.001089
147.970520019531 -225.215301513672 152.238876342773 0.992394 0.123096 0.001089
136.674026489258 -133.242111206055 155.687393188477 0.992394 0.123096 0.001089
161.488937377930 -335.278686523438 159.030349731445 0.992394 0.123096 0.001089
145.085327148438 -201.724670410156 162.675888061523 0.992394 0.123096 0.001089
140.809600830078 -166.912963867188 149.783782958984 0.992394 0.123096 0.001089
165.988677978516 -371.914428710938 160.915023803711 0.992394 0.123096 0.001089
145.874847412109 -208.152832031250 157.505798339844 0.992394 0.123096 0.001089
152.205780029297 -259.697662353516 153.475189208984 0.992394 0.123096 0.001089
147.730377197266 -223.260101318359 138.450347900391 0.992394 0.123096 0.001089
146.303115844727 -211.639587402344 163.359863281250 0.992394 0.123096 0.001089
155.733413696289 -288.418762207031 154.411895751953 0.992394 0.123096 0.001089
146.710388183594 -214.955535888672 164.888229370117 0.992394 0.123096 0.001089
138.949356079102 -151.767333984375 160.111419677734 0.992394 0.123096 0.001089
143.626739501953 -189.849349975586 164.752304077148 0.992394 0.123096 0.001089
155.850738525391 -289.373840332031 156.957672119141 0.992394 0.123096 0.001089
158.616210937500 -311.889648437500 154.637725830078 0.992394 0.123096 0.001089
157.717361450195 -304.571533203125 148.350433349609 0.992394 0.123096 0.001089
146.332489013672 -211.878875732422 148.384552001953 0.992394 0.123096 0.001089
150.645996093750 -246.998352050781 155.922241210938 0.992394 0.123096 0.001089
146.138107299805 -210.296142578125 141.895721435547 0.992394 0.123096 0.001089
161.022735595703 -331.483093261719 154.810745239258 0.992394 0.123096 0.001089
139.549987792969 -156.657440185547 153.248336791992 0.992394 0.123096 0.001089
159.069671630859 -315.581695556641 154.757659912109 0.992394 0.123096 0.001089
144.938156127930 -200.526535034180 148.659027099609 0.992394 0.123096 0.001089
143.182296752930 -186.230804443359 144.976516723633 0.992394 0.123096 0.001089
156.348266601563 -293.424682617188 146.663085937500 0.992394 0.123096 0.001089
149.422637939453 -237.037979125977 143.442138671875 0.992394 0.123096 0.001089
144.912780761719 -200.319763183594 140.111465454102 0.992394 0.123096 0.001089
147.941253662109 -224.976959228516 135.829238891602 0.992394 0.123096 0.001089
139.750930786133 -158.293518066406 148.652175903320 0.992394 0.123096 0.001089
132.539031982422 -99.576004028320 152.084503173828 0.992394 0.123096 0.001089
129.682388305664 -76.318054199219 155.068542480469 0.992394 0.123096 0.001089
138.805038452148 -150.592132568359 147.625411987305 0.992394 0.123096 0.001089
130.964370727539 -86.755538940430 140.377914428711 0.992394 0.123096 0.001089
136.340026855469 -130.522674560547 140.120346069336 0.992394 0.123096 0.001089
132.690689086914 -100.810821533203 135.209228515625 0.992394 0.123096 0.001089
137.720535278320 -141.762390136719 141.961547851563 0.992394 0.123096 0.001089
138.706481933594 -149.789794921875 145.993774414063 0.992394 0.123096 0.001089
132.222991943359 -97.002929687500 155.387939453125 0.992394 0.123096 0.001089
133.413787841797 -106.698005676270 142.707580566406 0.992394 0.123096 0.001089
130.202026367188 -80.548744201660 153.503906250000 0.992394 0.123096 0.001089
139.093444824219 -152.940277099609 135.314559936523 0.992394 0.123096 0.001089
132.131744384766 -96.260070800781 145.166107177734 0.992394 0.123096 0.001089
134.990203857422 -119.532852172852 150.896957397461 0.992394 0.123096 0.001089
137.429809570313 -139.395370483398 139.633163452148 0.992394 0.123096 0.001089
135.500778198242 -123.689804077148 138.707046508789 0.992394 0.123096 0.001089
129.144866943359 -71.941680908203 142.024322509766 0.992394 0.123096 0.001089
138.810180664063 -150.634063720703 138.086380004883 0.992394 0.123096 0.001089
134.520202636719 -115.706176757813 140.868041992188 0.992394 0.123096 0.001089
133.893676757813 -110.605163574219 155.377319335938 0.992394 0.123096 0.001089
136.605575561523 -132.684783935547 149.836547851563 0.992394 0.123096 0.001089
140.127304077148 -161.357650756836 135.479370117188 0.992394 0.123096 0.001089
134.521850585938 -115.719543457031 145.927947998047 0.992394 0.123096 0.001089
133.534866333008 -107.683860778809 143.202087402344 0.992394 0.123096 0.001089
129.323471069336 -73.395767211914 144.308303833008 0.992394 0.123096 0.001089
134.685394287109 -117.051116943359 148.192993164063 0.992394 0.123096 0.001089
129.390090942383 -73.938240051270 144.833892822266 0.992394 0.123096 0.001089
139.067092895508 -152.725753784180 147.762130737305 0.992394 0.123096 0.001089
138.741592407227 -150.075653076172 140.160812377930 0.992394 0.123096 0.001089
130.505844116211 -83.022354125977 152.462371826172 0.992394 0.123096 0.001089
146.209945678711 -418.789825439453 140.135375976563 0.000978 -0.999999 0.000978
145.589248657227 -418.789825439453 144.308700561523 0.000978 -0.999999 0.000978
148.971786499023 -418.789825439453 139.537551879883 0.000978 -0.999999 0.000978
144.117004394531 -418.789825439453 155.883895874023 0.000978 -0.999999 0.000978
149.672302246094 -418.789825439453 162.835494995117 0.000978 -0.999999 0.000978
144.366744995117 -418.789825439453 155.564605712891 0.000978 -0.999999 0.000978
147.535461425781 -418.789825439453 145.184570312500 0.000978 -0.999999 0.000978
147.112197875977 -418.789825439453 163.208816528320 0.000978 -0.999999 0.000978
161.811111450195 -418.789825439453 151.740325927734 0.000978 -0.999999 0.000978
167.272277832031 -418.789825439453 147.213134765625 0.000978 -0.999999 0.000978
167.525390625000 -418.789825439453 136.894958496094 0.000978 -0.999999 0.000978
169.850860595703 -418.789825439453 150.980346679688 0.000978 -0.999999 0.000978
92.693862915039 -96.994117736816 135.776397705078 -0.988665 -0.150135 0.001112
94.368202209473 -107.978225708008 145.672180175781 -0.988665 -0.150135 0.001112
92.370315551758 -94.871559143066 157.761230468750 -0.988665 -0.150135 0.001112
93.144554138184 -99.950767517090 147.011123657227 -0.988665 -0.150135 0.001112
94.460647583008 -108.584686279297 154.909210205078 -0.988665 -0.150135 0.001112
98.447242736816 -134.737762451172 141.186599731445 -0.988665 -0.150135 0.001112
95.421440124512 -114.887733459473 136.041503906250 -0.988665 -0.150135 0.001112
93.311706542969 -101.047309875488 142.566299438477 -0.988665 -0.150135 0.001112
94.666244506836 -109.933464050293 155.023910522461 -0.988665 -0.150135 0.001112
98.602279663086 -135.754852294922 136.580566406250 -0.988665 -0.150135 0.001112
93.079597473145 -99.524642944336 141.766128540039 -0.988665 -0.150135 0.001112
97.133460998535 -126.119049072266 146.249496459961 -0.988665 -0.150135 0.001112
103.191200256348 -165.859390258789 155.718612670898 -0.988665 -0.150135 0.001112
107.365783691406 -193.245758056641 161.128845214844 -0.988665 -0.150135 0.001112
114.097335815430 -237.406463623047 159.574966430664 -0.988665 -0.150135 0.001112
98.779701232910 -136.918823242188 143.678192138672 -0.988665 -0.150135 0.001112
102.047790527344 -158.358306884766 140.157684326172 -0.988665 -0.150135 0.001112
96.548538208008 -122.281791687012 162.787506103516 -0.988665 -0.150135 0.001112
110.457305908203 -213.526947021484 156.536254882813 -0.988665 -0.150135 0.001112
94.746284484863 -110.458511352539 157.062316894531 -0.988665 -0.150135 0.001112
97.853149414063 -130.840408325195 155.287078857422 -0.988665 -0.150135 0.001112
107.977844238281 -197.260986328125 150.092910766602 -0.988665 -0.150135 0.001112
104.656082153320 -175.469390869141 158.194122314453 -0.988665 -0.150135 0.001112
107.723747253418 -195.594085693359 155.039566040039 -0.988665 -0.150135 0.001112
100.683143615723 -149.405853271484 145.933425903320 -0.988665 -0.150135 0.001112
112.992729187012 -230.159957885742 156.112930297852 -0.988665 -0.150135 0.001112
96.556701660156 -122.335296630859 156.097732543945 -0.988665 -0.150135 0.001112
110.101959228516 -211.195755004883 149.261215209961 -0.988665 -0.150135 0.001112
103.573532104492 -168.367568969727 153.107315063477 -0.988665 -0.150135 0.001112
100.917510986328 -150.943359375000 152.619674682617 -0.988665 -0.150135 0.001112
99.108001708984 -139.072509765625 152.484146118164 -0.988665 -0.150135 0.001112
115.472274780273 -246.426391601563 157.355239868164 -0.988665 -0.150135 0.001112
113.516906738281 -233.598709106445 159.584518432617 -0.988665 -0.150135 0.001112
112.424400329590 -226.431594848633 152.717468261719 -0.988665 -0.150135 0.001112
100.090354919434 -145.517028808594 153.156311035156 -0.988665 -0.150135 0.001112
107.215980529785 -192.262969970703 162.109817504883 -0.988665 -0.150135 0.001112
98.169212341309 -132.913848876953 155.015625000000 -0.988665 -0.150135 0.001112
109.055664062500 -204.331802368164 161.072494506836 -0.988665 -0.150135 0.001112
108.505615234375 -200.723312377930 158.992736816406 -0.988665 -0.150135 0.001112
97.331306457520 -127.416931152344 160.739654541016 -0.988665 -0.150135 0.001112
103.752807617188 -169.543640136719 144.736984252930 -0.988665 -0.150135 0.001112
114.159446716309 -237.813949584961 154.574279785156 -0.988665 -0.150135 0.001112
104.044219970703 -171.455413818359 158.978179931641 -0.988665 -0.150135 0.001112
93.606979370117 -102.984397888184 161.785812377930 -0.988665 -0.150135 0.001112
101.887374877930 -157.305938720703 155.795806884766 -0.988665 -0.150135 0.001112
100.805984497070 -150.211700439453 138.623260498047 -0.988665 -0.150135 0.001112
104.945373535156 -177.367248535156 162.207427978516 -0.988665 -0.150135 0.001112
103.369804382324 -167.031082153320 164.189453125000 -0.988665 -0.150135 0.001112
111.444313049316 -220.001983642578 162.385635375977 -0.988665 -0.150135 0.001112
104.934593200684 -177.296478271484 163.782379150391 -0.988665 -0.150135 0.001112
105.851379394531 -183.310897827148 163.684951782227 -0.988665 -0.150135 0.001112
140.385986328125 -409.867095947266 164.864257812500 -0.988665 -0.150135 0.001112
120.791542053223 -281.322326660156 163.416595458984 -0.988665 -0.150135 0.001112
130.374862670898 -344.191497802734 164.776824951172 -0.988665 -0.150135 0.001112
104.505294799805 -174.480224609375 164.183868408203 -0.988665 -0.150135 0.001112
129.839965820313 -340.682464599609 162.061645507813 -0.988665 -0.150135 0.001112
140.015060424805 -407.433807373047 141.966735839844 -0.988665 -0.150135 0.001112
128.779724121094 -333.726989746094 160.636764526367 -0.988665 -0.150135 0.001112
132.603591918945 -358.812591552734 156.170700073242 -0.988665 -0.150135 0.001112
138.396926879883 -396.818359375000 164.051773071289 -0.988665 -0.150135 0.001112
137.955093383789 -393.919830322266 143.201614379883 -0.988665 -0.150135 0.001112
136.279663085938 -382.928558349609 144.712356567383 -0.988665 -0.150135 0.001112
137.578414916992 -391.448760986328 159.167022705078 -0.988665 -0.150135 0.001112
141.547485351563 -417.486938476563 158.487075805664 -0.988665 -0.150135 0.001112
135.552200317383 -378.156188964844 147.216201782227 -0.988665 -0.150135 0.001112
136.719909667969 -385.816680908203 142.539001464844 -0.988665 -0.150135 0.001112
130.140640258789 -342.654968261719 154.312973022461 -0.988665 -0.150135 0.001112
130.076080322266 -342.231445312500 154.484542846680 -0.988665 -0.150135 0.001112
138.045425415039 -394.512481689453 158.844482421875 -0.988665 -0.150135 0.001112
132.970596313477 -361.220275878906 152.221359252930 -0.988665 -0.150135 0.001112
133.633728027344 -365.570556640625 154.815994262695 -0.988665 -0.150135 0.001112
140.089324951172 -407.920959472656 143.007171630859 -0.988665 -0.150135 0.001112
139.071899414063 -401.246398925781 151.494628906250 -0.988665 -0.150135 0.001112
141.522674560547 -417.324096679688 156.877334594727 -0.988665 -0.150135 0.001112
135.757980346680 -379.506225585938 160.145751953125 -0.988665 -0.150135 0.001112
139.078933715820 -401.292541503906 152.304290771484 -0.988665 -0.150135 0.001112
136.842300415039 -386.619628906250 149.172637939453 -0.988665 -0.150135 0.001112
132.821945190430 -360.245056152344 149.737945556641 -0.988665 -0.150135 0.001112
133.960311889648 -367.713043212891 159.783676147461 -0.988665 -0.150135 0.001112
126.800819396973 -320.744842529297 155.383117675781 -0.988665 -0.150135 0.001112
137.380966186523 -390.153442382813 140.682067871094 -0.988665 -0.150135 0.001112
133.938079833984 -367.567199707031 143.558837890625 -0.988665 -0.150135 0.001112
130.744171142578 -346.614318847656 142.793121337891 -0.988665 -0.150135 0.001112
126.130661010742 -316.348419189453 154.658752441406 -0.988665 -0.150135 0.001112
126.389923095703 -318.049285888672 151.608917236328 -0.988665 -0.150135 0.001112
138.867416381836 -399.904907226563 137.311523437500 -0.988665 -0.150135 0.001112
136.544387817383 -384.665222167969 139.427413940430 -0.988665 -0.150135 0.001112
125.342491149902 -311.177825927734 156.582077026367 -0.988665 -0.150135 0.001112
132.296279907227 -356.796508789063 140.915725708008 -0.988665 -0.150135 0.001112
126.598640441895 -319.418518066406 146.987060546875 -0.988665 -0.150135 0.001112
125.387977600098 -311.476226806641 153.516784667969 -0.988665 -0.150135 0.001112
130.246536254883 -343.349700927734 138.909255981445 -0.988665 -0.150135 0.001112
131.888427734375 -354.120941162109 142.324249267578 -0.988665 -0.150135 0.001112
129.696533203125 -339.741455078125 141.718231201172 -0.988665 -0.150135 0.001112
138.574645996094 -397.984313964844 138.057067871094 -0.988665 -0.150135 0.001112
122.058326721191 -289.632873535156 136.923995971680 -0.988665 -0.150135 0.001112
127.884155273438 -327.851806640625 136.419403076172 -0.988665 -0.150135 0.001112
125.633018493652 -313.083770751953 137.480606079102 -0.988665 -0.150135 0.001112
128.602447509766 -332.564056396484 136.709472656250 -0.988665 -0.150135 0.001112
126.710807800293 -320.154357910156 137.897109985352 -0.988665 -0.150135 0.001112
119.119598388672 -270.354003906250 135.690139770508 -0.988665 -0.150135 0.001112
117.704849243164 -261.072753906250 136.901245117188 -0.988665 -0.150135 0.001112
118.917686462402 -269.029235839844 151.783081054688 -0.988665 -0.150135 0.001112
118.714859008789 -267.698638916016 146.821350097656 -0.988665 -0.150135 0.001112
115.776557922363 -248.422637939453 142.193481445313 -0.988665 -0.150135 0.001112
118.819610595703 -268.385833740234 143.744323730469 -0.988665 -0.150135 0.001112
118.791213989258 -268.199554443359 143.015197753906 -0.988665 -0.150135 0.001112
119.136863708496 -270.467102050781 141.887176513672 -0.988665 -0.150135 0.001112
116.422592163086 -252.660781860352 147.840576171875 -0.988665 -0.150135 0.001112
113.682060241699 -234.682189941406 143.723846435547 -0.988665 -0.150135 0.001112
113.870681762695 -235.919616699219 141.094345092773 -0.988665 -0.150135 0.001112
115.956253051758 -249.601501464844 145.750442504883 -0.988665 -0.150135 0.001112
112.428421020508 -226.457992553711 136.283905029297 -0.988665 -0.150135 0.001112
112.514602661133 -227.023391723633 145.275588989258 -0.988665 -0.150135 0.001112
107.516716003418 -194.235900878906 140.244400024414 -0.988665 -0.150135 0.001112
116.174713134766 -251.034622192383 152.454742431641 -0.988665 -0.150135 0.001112
107.632865905762 -194.997879028320 141.282440185547 -0.988665 -0.150135 0.001112
114.455276489258 -239.754638671875 150.775253295898 -0.988665 -0.150135 0.001112
112.193817138672 -224.918884277344 149.804931640625 -0.988665 -0.150135 0.001112
112.921852111816 -229.694992065430 149.955993652344 -0.988665 -0.150135 0.001112
106.990165710449 -190.781600952148 136.658401489258 -0.988665 -0.150135 0.001112
104.527381896973 -174.625137329102 135.551818847656 -0.988665 -0.150135 0.001112
91.746086120605 -76.671890258789 143.021026611328 -0.999999 0.000978 0.000978
91.746086120605 -57.845241546631 155.214981079102 -0.999999 0.000978 0.000978
91.746086120605 -78.743492126465 141.282760620117 -0.999999 0.000978 0.000978
91.746086120605 -55.195850372314 142.749084472656 -0.999999 0.000978 0.000978
91.746086120605 -66.522186279297 139.444213867188 -0.999999 0.000978 0.000978
91.746086120605 -63.974899291992 143.550765991211 -0.999999 0.000978 0.000978
91.746086120605 -58.014724731445 160.730026245117 -0.999999 0.000978 0.000978
91.746086120605 -75.368484497070 151.933807373047 -0.999999 0.000978 0.000978
91.746086120605 -88.663269042969 153.663681030273 -0.999999 0.000978 0.000978
91.746086120605 -79.783454895020 153.329818725586 -0.999999 0.000978 0.000978
91.746086120605 -71.748977661133 156.769897460938 -0.999999 0.000978 0.000978
91.746086120605 -85.579689025879 150.663360595703 -0.999999 0.000978 0.000978
91.746086120605 -75.884216308594 153.987640380859 -0.999999 0.000978 0.000978
91.746086120605 -53.634277343750 160.712402343750 -0.999999 0.000978 0.000978
91.746086120605 -62.250999450684 164.441467285156 -0.999999 0.000978 0.000978
91.746086120605 -64.842453002930 162.513931274414 -0.999999 0.000978 0.000978
91.746086120605 -5.514093399048 160.778457641602 -0.999999 0.000978 0.000978
91.746086120605 -18.206012725830 162.409179687500 -0.999999 0.000978 0.000978
91.746086120605 2.945064067841 153.388931274414 -0.999999 0.000978 0.000978
91.746086120605 8.078062057495 158.464019775391 -0.999999 0.000978 0.000978
91.746086120605 14.168684005737 141.922103881836 -0.999999 0.000978 0.000978
91.746086120605 2.114786624908 139.778961181641 -0.999999 0.000978 0.000978
91.746086120605 15.539651870728 137.443328857422 -0.999999 0.000978 0.000978
91.746086120605 4.525297164917 136.930892944336 -0.999999 0.000978 0.000978
91.746086120605 -38.155155181885 139.148956298828 -0.999999 0.000978 0.000978
91.746086120605 -37.420452117920 139.223144531250 -0.999999 0.000978 0.000978
91.746086120605 -47.506198883057 139.050567626953 -0.999999 0.000978 0.000978
91.746086120605 -88.001487731934 135.047653198242 -0.999999 0.000978 0.000978
91.746086120605 -47.643131256104 135.898223876953 -0.999999 0.000978 0.000978
123.250572204590 75.881614685059 165.029602050781 0.000978 0.000978 0.999999
130.371185302734 140.954147338867 165.029602050781 0.000978 0.000978 0.999999
152.820953369141 213.077407836914 165.029602050781 0.000978 0.000978 0.999999
148.503967285156 254.335296630859 165.029617309570 0.000978 0.000978 0.999999
125.142990112305 105.659736633301 165.029602050781 0.000978 0.000978 0.999999
134.516891479492 124.178802490234 165.029602050781 0.000978 0.000978 0.999999
129.155685424805 115.184555053711 165.029602050781 0.000978 0.000978 0.999999
133.059036254883 161.983642578125 165.029602050781 0.000978 0.000978 0.999999
175.893768310547 402.123016357422 165.029617309570 0.000978 0.000978 0.999999
109.870666503906 25.328811645508 165.029602050781 0.000978 0.000978 0.999999
141.188079833984 202.586807250977 165.029602050781 0.000978 0.000978 0.999999
131.639099121094 133.012023925781 165.029602050781 0.000978 0.000978 0.999999
122.069343566895 78.624145507813 165.029602050781 0.000978 0.000978 0.999999
138.433700561523 154.244293212891 165.029602050781 0.000978 0.000978 0.999999
131.904144287109 59.693145751953 165.029602050781 0.000978 0.000978 0.999999
129.949111938477 48.409271240234 165.029602050781 0.000978 0.000978 0.999999
157.219055175781 253.450225830078 165.029617309570 0.000978 0.000978 0.999999
128.958587646484 25.913600921631 165.029602050781 0.000978 0.000978 0.999999
127.527763366699 76.114013671875 165.029602050781 0.000978 0.000978 0.999999
133.957641601563 138.911102294922 165.029602050781 0.000978 0.000978 0.999999
162.893783569336 335.991394042969 165.029617309570 0.000978 0.000978 0.999999
127.694686889648 111.788230895996 165.029602050781 0.000978 0.000978 0.999999
157.983917236328 265.628051757813 165.029617309570 0.000978 0.000978 0.999999
126.606018066406 15.846163749695 165.029602050781 0.000978 0.000978 0.999999
127.875503540039 109.535018920898 165.029602050781 0.000978 0.000978 0.999999
138.097610473633 190.005371093750 165.029602050781 0.000978 0.000978 0.999999
141.873321533203 189.643112182617 165.029602050781 0.000978 0.000978 0.999999
103.513679504395 -15.327899932861 165.029602050781 0.000978 0.000978 0.999999
140.658142089844 177.842956542969 165.029602050781 0.000978 0.000978 0.999999
119.736930847168 31.447286605835 165.029602050781 0.000978 0.000978 0.999999
121.415626525879 54.922760009766 165.029602050781 0.000978 0.000978 0.999999
149.400131225586 233.323699951172 165.029602050781 0.000978 0.000978 0.999999
122.909759521484 20.677097320557 165.029602050781 0.000978 0.000978 0.999999
143.941970825195 168.681045532227 165.029602050781 0.000978 0.000978 0.999999
149.896331787109 252.878311157227 165.029617309570 0.000978 0.000978 0.999999
134.708389282227 137.276977539063 165.029602050781 0.000978 0.000978 0.999999
123.256095886230 46.773078918457 165.029602050781 0.000978 0.000978 0.999999
145.131500244141 215.071838378906 165.029602050781 0.000978 0.000978 0.999999
143.988006591797 186.185531616211 165.029602050781 0.000978 0.000978 0.999999
128.702026367188 135.629440307617 165.029602050781 0.000978 0.000978 0.999999
132.511337280273 97.324867248535 165.029602050781 0.000978 0.000978 0.999999
117.780296325684 27.997440338135 165.029602050781 0.000978 0.000978 0.999999
128.481689453125 95.760475158691 165.029602050781 0.000978 0.000978 0.999999
109.728027343750 -9.258298873901 165.029602050781 0.000978 0.000978 0.999999
150.480041503906 221.465209960938 165.029602050781 0.000978 0.000978 0.999999
123.085113525391 85.754859924316 165.029602050781 0.000978 0.000978 0.999999
159.481292724609 293.393951416016 165.029617309570 0.000978 0.000978 0.999999
143.493133544922 184.083984375000 165.029602050781 0.000978 0.000978 0.999999
157.446533203125 267.013458251953 165.029617309570 0.000978 0.000978 0.999999
148.135513305664 200.284606933594 165.029602050781 0.000978 0.000978 0.999999
113.705932617188 50.547294616699 165.029602050781 0.000978 0.000978 0.999999
126.526916503906 115.577064514160 165.029602050781 0.000978 0.000978 0.999999
127.708755493164 36.353359222412 165.029602050781 0.000978 0.000978 0.999999
143.392379760742 159.586242675781 165.029602050781 0.000978 0.000978 0.999999
144.800781250000 228.938766479492 165.029617309570 0.000978 0.000978 0.999999
158.341903686523 260.659240722656 165.029617309570 0.000978 0.000978 0.999999
156.790100097656 263.760955810547 165.029617309570 0.000978 0.000978 0.999999
121.582565307617 66.535087585449 165.029602050781 0.000978 0.000978 0.999999
160.870452880859 281.930694580078 165.029617309570 0.000978 0.000978 0.999999
132.871612548828 135.059326171875 165.029602050781 0.000978 0.000978 0.999999
145.110046386719 204.018783569336 165.029602050781 0.000978 0.000978 0.999999
142.552017211914 189.505249023438 165.029602050781 0.000978 0.000978 0.999999
162.627944946289 303.587738037109 165.029617309570 0.000978 0.000978 0.999999
171.168869018555 381.726959228516 165.029617309570 0.000978 0.000978 0.999999
140.987731933594 127.809509277344 165.029602050781 0.000978 0.000978 0.999999
162.468048095703 319.084533691406 165.029617309570 0.000978 0.000978 0.999999
168.220001220703 363.566040039063 165.029617309570 0.000978 0.000978 0.999999
127.948059082031 63.058143615723 165.029602050781 0.000978 0.000978 0.999999
124.315666198730 14.467390060425 165.029602050781 0.000978 0.000978 0.999999
143.928497314453 144.115234375000 165.029602050781 0.000978 0.000978 0.999999
124.877204895020 85.787765502930 165.029602050781 0.000978 0.000978 0.999999
120.201316833496 90.872337341309 165.029602050781 0.000978 0.000978 0.999999
126.451484680176 128.580871582031 165.029602050781 0.000978 0.000978 0.999999
163.776657104492 348.527618408203 165.029617309570 0.000978 0.000978 0.999999
177.350936889648 425.436523437500 165.029617309570 0.000978 0.000978 0.999999
171.230636596680 406.199645996094 165.029617309570 0.000978 0.000978 0.999999
172.889907836914 399.959594726563 165.029617309570 0.000978 0.000978 0.999999
111.167709350586 45.329132080078 165.029602050781 0.000978 0.000978 0.999999
167.552978515625 391.153137207031 165.029617309570 0.000978 0.000978 0.999999
142.594848632813 236.057586669922 165.029617309570 0.000978 0.000978 0.999999
161.190841674805 337.982727050781 165.029617309570 0.000978 0.000978 0.999999
163.980590820313 347.744750976563 165.029617309570 0.000978 0.000978 0.999999
163.951339721680 358.367523193359 165.029617309570 0.000978 0.000978 0.999999
135.483169555664 185.704132080078 165.029602050781 0.000978 0.000978 0.999999
143.037048339844 249.396194458008 165.029617309570 0.000978 0.000978 0.999999
166.185729980469 397.499481201172 165.029617309570 0.000978 0.000978 0.999999
162.784225463867 356.359741210938 165.029617309570 0.000978 0.000978 0.999999
163.885437011719 369.710083007813 165.029617309570 0.000978 0.000978 0.999999
162.024398803711 360.670867919922 165.029617309570 0.000978 0.000978 0.999999
171.460739135742 395.575592041016 165.029617309570 0.000978 0.000978 0.999999
161.514038085938 342.231933593750 165.029617309570 0.000978 0.000978 0.999999
138.815368652344 209.967407226563 165.029602050781 0.000978 0.000978 0.999999
143.084518432617 248.548431396484 165.029617309570 0.000978 0.000978 0.999999
176.901000976563 425.974365234375 165.029617309570 0.000978 0.000978 0.999999
171.540298461914 398.917205810547 165.029617309570 0.000978 0.000978 0.999999
172.738265991211 431.975463867188 165.029617309570 0.000978 0.000978 0.999999
172.466949462891 417.445861816406 165.029617309570 0.000978 0.000978 0.999999
163.110260009766 350.275939941406 165.029617309570 0.000978 0.000978 0.999999
173.040817260742 408.100006103516 165.029617309570 0.000978 0.000978 0.999999
156.950820922852 350.428405761719 165.029617309570 0.000978 0.000978 0.999999
158.511718750000 361.345336914063 165.029617309570 0.000978 0.000978 0.999999
120.480491638184 112.330474853516 165.029602050781 -0.000978 0.000978 0.999999
136.127975463867 211.665267944336 165.029617309570 0.000978 0.000978 0.999999
143.411682128906 259.497985839844 165.029617309570 0.000978 0.000978 0.999999
145.347747802734 269.571197509766 165.029617309570 0.000978 0.000978 0.999999
136.964843750000 213.522155761719 165.029617309570 0.000978 0.000978 0.999999
165.237686157227 397.473449707031 165.029617309570 0.000978 0.000978 0.999999
169.040573120117 418.345062255859 165.029617309570 0.000978 0.000978 0.999999
126.535446166992 12.646085739136 165.029602050781 0.000978 0.000978 0.999999
127.052597045898 -42.409866333008 165.029602050781 0.000978 0.000978 0.999999
127.692634582520 -15.510063171387 165.029602050781 0.000978 0.000978 0.999999
122.563240051270 -33.570987701416 165.029602050781 0.000978 0.000978 0.999999
123.954109191895 -6.073182106018 165.029602050781 0.000978 0.000978 0.999999
122.179588317871 -51.809806823730 165.029602050781 0.000978 0.000978 0.999999
126.385711669922 -13.802080154419 165.029602050781 0.000978 0.000978 0.999999
128.084075927734 -9.591440200806 165.029602050781 0.000978 0.000978 0.999999
123.711898803711 -0.373895645142 165.029602050781 0.000978 0.000978 0.999999
127.457458496094 -55.330375671387 165.029602050781 0.000978 0.000978 0.999999
161.397735595703 463.654846191406 165.029617309570 0.000978 0.000978 0.999999
166.091400146484 456.011627197266 165.029617309570 0.000978 0.000978 0.999999
164.716979980469 458.005462646484 165.029617309570 0.000978 0.000978 0.999999
159.848327636719 476.078033447266 165.029617309570 0.000978 0.000978 0.999999
172.686691284180 460.468200683594 165.029617309570 0.000978 0.000978 0.999999
163.016006469727 471.587921142578 165.029617309570 0.000978 0.000978 0.999999
171.344345092773 477.550201416016 165.029617309570 0.000978 0.000978 0.999999
169.615402221680 448.877929687500 165.029617309570 0.000978 0.000978 0.999999
106.566276550293 -158.444427490234 165.029602050781 0.000978 0.000978 0.999999
112.937088012695 -128.181854248047 165.029602050781 0.000978 0.000978 0.999999
114.301506042480 -178.361465454102 165.029602050781 0.000978 0.000978 0.999999
112.241477966309 -116.520904541016 165.029602050781 0.000978 0.000978 0.999999
112.223060607910 -202.004974365234 165.029602050781 0.000978 0.000978 0.999999
107.378494262695 -184.590698242188 165.029602050781 0.000978 0.000978 0.999999
104.634582519531 -94.782585144043 165.029602050781 0.000978 0.000978 0.999999
116.389778137207 -202.285552978516 165.029602050781 0.000978 0.000978 0.999999
106.824943542480 -72.132354736328 165.029602050781 0.000978 0.000978 0.999999
123.486198425293 -259.745758056641 165.029586791992 0.000978 0.000978 0.999999
107.829475402832 -170.771331787109 165.029602050781 0.000978 0.000978 0.999999
97.431678771973 -94.112243652344 165.029602050781 0.000978 0.000978 0.999999
106.794082641602 -74.566673278809 165.029602050781 0.000978 0.000978 0.999999
124.133888244629 -235.243225097656 165.029586791992 0.000978 0.000978 0.999999
119.581733703613 -220.771682739258 165.029602050781 0.000978 0.000978 0.999999
130.420837402344 -309.467163085938 165.029586791992 0.000978 0.000978 0.999999
120.897102355957 -201.988494873047 165.029602050781 0.000978 0.000978 0.999999
111.975051879883 -216.097122192383 165.029602050781 0.000978 0.000978 0.999999
101.562126159668 -56.503860473633 165.029602050781 0.000978 0.000978 0.999999
117.296188354492 -205.173370361328 165.029602050781 0.000978 0.000978 0.999999
96.166168212891 -118.034690856934 165.029602050781 0.000978 0.000978 0.999999
109.451293945313 -149.573471069336 165.029602050781 0.000978 0.000978 0.999999
103.639373779297 -154.358688354492 165.029602050781 0.000978 0.000978 0.999999
115.078063964844 -162.799713134766 165.029602050781 0.000978 0.000978 0.999999
109.064437866211 -189.085342407227 165.029602050781 0.000978 0.000978 0.999999
107.149932861328 -72.309967041016 165.029602050781 0.000978 0.000978 0.999999
125.966812133789 -308.380798339844 165.029586791992 0.000978 0.000978 0.999999
109.624526977539 -167.089645385742 165.029602050781 0.000978 0.000978 0.999999
112.425117492676 -127.187080383301 165.029602050781 0.000978 0.000978 0.999999
116.159919738770 -157.597702026367 165.029602050781 0.000978 0.000978 0.999999
98.225616455078 -101.366065979004 165.029602050781 0.000978 0.000978 0.999999
115.334617614746 -170.453872680664 165.029602050781 0.000978 0.000978 0.999999
121.829490661621 -235.429321289063 165.029586791992 0.000978 0.000978 0.999999
133.841232299805 -346.426544189453 165.029586791992 0.000978 0.000978 0.999999
121.027931213379 -209.940597534180 165.029602050781 0.000978 0.000978 0.999999
102.476066589355 -111.727340698242 165.029602050781 0.000978 0.000978 0.999999
96.853256225586 -89.848686218262 165.029602050781 0.000978 0.000978 0.999999
105.361328125000 -44.429470062256 165.029602050781 0.000978 0.000978 0.999999
107.234535217285 -62.651390075684 165.029602050781 0.000978 0.000978 0.999999
104.165641784668 -166.367263793945 165.029602050781 0.000978 0.000978 0.999999
107.504188537598 -64.646537780762 165.029602050781 0.000978 0.000978 0.999999
108.891052246094 -75.230102539063 165.029602050781 0.000978 0.000978 0.999999
97.949974060059 -82.059707641602 165.029602050781 0.000978 0.000978 0.999999
106.512992858887 -65.304763793945 165.029602050781 0.000978 0.000978 0.999999
109.690582275391 -115.286392211914 165.029602050781 0.000978 0.000978 0.999999
122.093383789063 -275.209594726563 165.029586791992 0.000978 0.000978 0.999999
111.255218505859 -159.102722167969 165.029602050781 0.000978 0.000978 0.999999
100.754135131836 -132.265289306641 165.029602050781 0.000978 0.000978 0.999999
96.864402770996 -88.502891540527 165.029602050781 0.000978 0.000978 0.999999
166.364486694336 425.906646728516 165.029617309570 0.000978 0.000978 0.999999
100.631088256836 65.101356506348 165.029602050781 0.000978 0.000978 0.999999
123.473060607910 189.665130615234 165.029602050781 0.000978 0.000978 0.999999
125.122398376465 201.392547607422 165.029602050781 0.000978 0.000978 0.999999
158.101867675781 383.440002441406 165.029617309570 0.000978 0.000978 0.999999
157.622756958008 383.766906738281 165.029617309570 0.000978 0.000978 0.999999
122.142646789551 188.250335693359 165.029602050781 0.000978 0.000978 0.999999
132.160736083984 242.831710815430 165.029617309570 0.000978 0.000978 0.999999
159.201553344727 397.765045166016 165.029617309570 0.000978 0.000978 0.999999
114.169654846191 -8.959233283997 165.029602050781 0.000978 0.000978 0.999999
109.553695678711 -20.131252288818 165.029602050781 0.000978 0.000978 0.999999
129.282943725586 -119.501281738281 165.029586791992 0.000978 0.000978 0.999999
133.531753540039 -182.126251220703 165.029602050781 0.000978 0.000978 0.999999
116.178192138672 -68.516571044922 165.029602050781 0.000978 0.000978 0.999999
115.808113098145 -70.814910888672 165.029602050781 0.000978 0.000978 0.999999
160.341476440430 -328.491729736328 165.029586791992 0.000978 0.000978 0.999999
130.250488281250 -129.836334228516 165.029586791992 0.000978 0.000978 0.999999
121.075775146484 -58.888351440430 165.029602050781 0.000978 0.000978 0.999999
158.131652832031 -314.782501220703 165.029586791992 0.000978 0.000978 0.999999
143.991912841797 -221.409729003906 165.029586791992 0.000978 0.000978 0.999999
135.772186279297 -169.456970214844 165.029586791992 0.000978 0.000978 0.999999
137.869094848633 -178.442504882813 165.029586791992 0.000978 0.000978 0.999999
142.194015502930 -202.160766601563 165.029586791992 0.000978 0.000978 0.999999
123.677688598633 -95.730041503906 165.029602050781 0.000978 0.000978 0.999999
127.085327148438 -90.878974914551 165.029602050781 0.000978 0.000978 0.999999
111.993865966797 -53.419952392578 165.029602050781 0.000978 0.000978 0.999999
155.690979003906 -309.092651367188 165.029586791992 0.000978 0.000978 0.999999
127.835845947266 -75.751480102539 165.029602050781 0.000978 0.000978 0.999999
110.308013916016 -41.301666259766 165.029602050781 0.000978 0.000978 0.999999
115.702995300293 -62.687103271484 165.029602050781 0.000978 0.000978 0.999999
146.227706909180 -255.037033081055 165.029586791992 0.000978 0.000978 0.999999
148.834411621094 -254.542205810547 165.029586791992 0.000978 0.000978 0.999999
135.542694091797 -194.085647583008 165.029602050781 0.000978 0.000978 0.999999
128.970397949219 -98.087280273438 165.029602050781 0.000978 0.000978 0.999999
129.868652343750 -158.789428710938 165.029602050781 0.000978 0.000978 0.999999
153.687103271484 -276.450805664063 165.029586791992 0.000978 0.000978 0.999999
142.247756958008 -228.396453857422 165.029586791992 0.000978 0.000978 0.999999
130.988067626953 -167.229812622070 165.029602050781 0.000978 0.000978 0.999999
158.065765380859 -322.182006835938 165.029586791992 0.000978 0.000978 0.999999
133.702255249023 -172.442916870117 165.029586791992 0.000978 0.000978 0.999999
131.393310546875 -133.836624145508 165.029586791992 0.000978 0.000978 0.999999
120.357223510742 -70.171844482422 165.029602050781 0.000978 0.000978 0.999999
163.859649658203 -359.316253662109 165.029586791992 0.000978 0.000978 0.999999
130.709289550781 -85.386291503906 165.029602050781 0.000978 0.000978 0.999999
119.571746826172 -77.343887329102 165.029602050781 0.000978 0.000978 0.999999
155.275222778320 -295.288146972656 165.029586791992 0.000978 0.000978 0.999999
151.542633056641 -288.175872802734 165.029586791992 0.000978 0.000978 0.999999
154.575668334961 -296.483093261719 165.029586791992 0.000978 0.000978 0.999999
147.152679443359 -270.443786621094 165.029586791992 0.000978 0.000978 0.999999
147.630783081055 -273.314453125000 165.029586791992 0.000978 0.000978 0.999999
144.577728271484 -331.118408203125 165.029586791992 0.000978 0.000978 0.999999
159.988403320313 -371.534027099609 165.029586791992 0.000978 0.000978 0.999999
158.136444091797 -346.019866943359 165.029586791992 0.000978 0.000978 0.999999
162.207061767578 -392.964996337891 165.029586791992 0.000978 0.000978 0.999999
130.130584716797 -169.045013427734 165.029602050781 0.000978 0.000978 0.999999
127.344024658203 -160.116119384766 165.029602050781 0.000978 0.000978 0.999999
109.931732177734 -56.122131347656 165.029602050781 0.000978 0.000978 0.999999
137.779479980469 -295.857940673828 165.029586791992 0.000978 0.000978 0.999999
152.378372192383 -366.171752929688 165.029586791992 0.000978 0.000978 0.999999
120.280860900879 -150.080383300781 165.029602050781 0.000978 0.000978 0.999999
149.610305786133 -331.931091308594 165.029586791992 0.000978 0.000978 0.999999
130.689575195313 -219.621017456055 165.029602050781 0.000978 0.000978 0.999999
139.176315307617 -357.557006835938 165.029586791992 0.000978 0.000978 0.999999
129.380340576172 -253.097702026367 165.029586791992 0.000978 0.000978 0.999999
137.444900512695 -320.684661865234 165.029586791992 0.000978 0.000978 0.999999
145.773147583008 -412.047302246094 165.029586791992 0.000978 0.000978 0.999999
151.443725585938 -350.844085693359 165.029586791992 0.000978 0.000978 0.999999
165.094146728516 -387.793457031250 165.029586791992 0.000978 0.000978 0.999999
152.550796508789 -393.437957763672 165.029586791992 0.000978 0.000978 0.999999
127.597305297852 -239.166534423828 165.029586791992 0.000978 0.000978 0.999999
146.383438110352 -349.257995605469 165.029586791992 0.000978 0.000978 0.999999
144.154876708984 -375.698120117188 165.029586791992 0.000978 0.000978 0.999999
150.429092407227 -362.143768310547 165.029586791992 0.000978 0.000978 0.999999
121.193008422852 -164.335357666016 165.029602050781 0.000978 0.000978 0.999999
131.629028320313 -188.850067138672 165.029602050781 0.000978 0.000978 0.999999
139.102401733398 -334.417449951172 165.029586791992 0.000978 0.000978 0.999999
141.866668701172 -261.263824462891 165.029586791992 0.000978 0.000978 0.999999
126.262420654297 -167.302413940430 165.029602050781 0.000978 0.000978 0.999999
139.549575805664 -305.231658935547 165.029586791992 0.000978 0.000978 0.999999
116.642784118652 -127.591522216797 165.029602050781 0.000978 0.000978 0.999999
158.754180908203 -354.049255371094 165.029586791992 0.000978 0.000978 0.999999
125.071784973145 -190.326370239258 165.029602050781 0.000978 0.000978 0.999999
123.312133789063 -128.722717285156 165.029602050781 0.000978 0.000978 0.999999
126.614868164063 -237.695556640625 165.029586791992 0.000978 0.000978 0.999999
143.834274291992 -252.894622802734 165.029586791992 0.000978 0.000978 0.999999
141.987091064453 -332.598632812500 165.029586791992 0.000978 0.000978 0.999999
149.452499389648 -319.904693603516 165.029586791992 0.000978 0.000978 0.999999
153.560592651367 -346.772857666016 165.029586791992 0.000978 0.000978 0.999999
141.466796875000 -326.677246093750 165.029586791992 0.000978 0.000978 0.999999
124.463607788086 -162.014190673828 165.029602050781 0.000978 0.000978 0.999999
136.603149414063 -265.814758300781 165.029586791992 0.000978 0.000978 0.999999
154.831481933594 -333.689025878906 165.029586791992 0.000978 0.000978 0.999999
142.235763549805 -329.730163574219 165.029586791992 0.000978 0.000978 0.999999
152.953842163086 -392.029846191406 165.029586791992 0.000978 0.000978 0.999999
129.071212768555 -232.453475952148 165.029586791992 0.000978 0.000978 0.999999
147.498718261719 -377.620544433594 165.029586791992 0.000978 0.000978 0.999999
142.827697753906 -376.740295410156 165.029586791992 0.000978 0.000978 0.999999
152.872619628906 -325.470336914063 165.029586791992 0.000978 0.000978 0.999999
128.932418823242 -248.193969726563 165.029586791992 0.000978 0.000978 0.999999
139.438766479492 -272.502380371094 165.029586791992 0.000978 0.000978 0.999999
150.315826416016 -395.560760498047 165.029586791992 0.000978 0.000978 0.999999
129.225204467773 -267.579711914063 165.029586791992 0.000978 0.000978 0.999999
120.693161010742 -148.184539794922 165.029602050781 0.000978 0.000978 0.999999
160.051757812500 -389.127685546875 165.029586791992 0.000978 0.000978 0.999999
128.116638183594 -194.316421508789 165.029602050781 0.000978 0.000978 0.999999
155.356582641602 -403.889160156250 165.029586791992 0.000978 0.000978 0.999999
142.975006103516 -356.302764892578 165.029586791992 0.000978 0.000978 0.999999
153.038589477539 -364.472778320313 165.029586791992 0.000978 0.000978 0.999999
142.602813720703 -298.582458496094 165.029586791992 0.000978 0.000978 0.999999
136.880783081055 -345.221618652344 165.029586791992 0.000978 0.000978 0.999999
159.358459472656 -366.238098144531 165.029586791992 0.000978 0.000978 0.999999
138.947082519531 -247.880661010742 165.029586791992 0.000978 0.000978 0.999999
125.605590820313 -210.569610595703 165.029602050781 0.000978 0.000978 0.999999
145.258178710938 -372.053314208984 165.029586791992 0.000978 0.000978 0.999999
148.055496215820 -284.523956298828 165.029586791992 0.000978 0.000978 0.999999
134.459503173828 -290.342468261719 165.029586791992 0.000978 0.000978 0.999999
138.867187500000 -253.199829101563 165.029586791992 0.000978 0.000978 0.999999
144.498687744141 -409.049743652344 165.029586791992 0.000978 0.000978 0.999999
119.456619262695 -157.203216552734 165.029602050781 0.000978 0.000978 0.999999
155.816955566406 -338.581207275391 165.029586791992 0.000978 0.000978 0.999999
132.228225708008 -257.512390136719 165.029586791992 0.000978 0.000978 0.999999
139.141983032227 -236.279785156250 165.029586791992 0.000978 0.000978 0.999999
148.524185180664 -410.268829345703 165.029586791992 0.000978 0.000978 0.999999
137.643951416016 -264.137084960938 165.029586791992 0.000978 0.000978 0.999999
121.470764160156 -173.086608886719 165.029602050781 0.000978 0.000978 0.999999
139.007400512695 -266.075866699219 165.029586791992 0.000978 0.000978 0.999999
116.030700683594 -110.967742919922 165.029602050781 0.000978 0.000978 0.999999
111.580589294434 -80.507507324219 165.029602050781 0.000978 0.000978 0.999999
117.621215820313 -152.512405395508 165.029602050781 0.000978 0.000978 0.999999
112.943542480469 -96.865028381348 165.029602050781 0.000978 0.000978 0.999999
134.413070678711 -339.933776855469 165.029586791992 0.000978 0.000978 0.999999
136.429992675781 -361.733551025391 165.029586791992 0.000978 0.000978 0.999999
116.179687500000 -145.095367431641 165.029602050781 0.000978 0.000978 0.999999
145.281463623047 320.688110351563 165.029617309570 0.000978 0.000978 0.999999
136.378662109375 271.481933593750 165.029602050781 0.000978 0.000978 0.999999
151.826202392578 360.717834472656 165.029602050781 0.000978 0.000978 0.999999
155.532302856445 387.078338623047 165.029617309570 0.000978 0.000978 0.999999
131.710693359375 247.356552124023 165.029617309570 0.000978 0.000978 0.999999
119.434829711914 176.439575195313 165.029602050781 0.000978 0.000978 0.999999
150.170944213867 360.365631103516 165.029617309570 0.000978 0.000978 0.999999
148.794967651367 351.949401855469 165.029617309570 0.000978 0.000978 0.999999
141.938705444336 311.765502929688 165.029617309570 0.000978 0.000978 0.999999
111.217033386230 132.863281250000 165.029602050781 0.000978 0.000978 0.999999
124.932266235352 214.080261230469 165.029602050781 0.000978 0.000978 0.999999
133.131027221680 267.035949707031 165.029617309570 0.000978 0.000978 0.999999
143.394866943359 328.154052734375 165.029617309570 0.000978 0.000978 0.999999
154.067565917969 398.559539794922 165.029617309570 0.000978 0.000978 0.999999
121.111053466797 195.541076660156 165.029602050781 0.000978 0.000978 0.999999
177.948028564453 462.393218994141 165.029617309570 0.000978 0.000978 0.999999
110.473083496094 -22.453136444092 165.029602050781 0.000978 0.000978 0.999999
151.125671386719 315.971679687500 165.029602050781 0.000978 0.000978 0.999999
151.831817626953 322.800537109375 165.029617309570 0.000978 0.000978 0.999999
140.328689575195 243.755050659180 165.029617309570 0.000978 0.000978 0.999999
113.459121704102 107.234275817871 165.029602050781 0.000978 0.000978 0.999999
95.168846130371 19.218402862549 165.029602050781 0.000978 0.000978 0.999999
99.734786987305 58.407577514648 165.029602050781 0.000978 0.000978 0.999999
129.771835327148 198.681640625000 165.029602050781 0.000978 0.000978 0.999999
125.155029296875 153.143630981445 165.029602050781 -0.000978 0.000978 0.999999
98.783851623535 -18.304466247559 165.029602050781 -0.000978 0.000978 0.999999
116.996925354004 124.824195861816 165.029602050781 0.000978 0.000978 0.999999
100.804878234863 15.680831909180 165.029602050781 -0.000978 0.000978 0.999999
102.688163757324 68.173767089844 165.029602050781 0.000978 0.000978 0.999999
106.067596435547 27.061311721802 165.029602050781 -0.000978 0.000978 0.999999
99.659301757813 56.639770507813 165.029602050781 0.000978 0.000978 0.999999
113.582069396973 99.964569091797 165.029602050781 0.000978 0.000978 0.999999
98.138114929199 -3.575003623962 165.029602050781 -0.000978 0.000978 0.999999
140.211486816406 250.422515869141 165.029617309570 0.000978 0.000978 0.999999
120.243896484375 165.410232543945 165.029602050781 0.000978 0.000978 0.999999
149.998153686523 311.508575439453 165.029617309570 0.000978 0.000978 0.999999
158.305877685547 368.171875000000 165.029617309570 0.000978 0.000978 0.999999
124.495101928711 151.606506347656 165.029602050781 -0.000978 0.000978 0.999999
109.065582275391 58.668197631836 165.029602050781 -0.000978 0.000978 0.999999
134.354141235352 216.752853393555 165.029617309570 0.000978 0.000978 0.999999
124.286071777344 163.644424438477 165.029602050781 0.000978 0.000978 0.999999
150.943969726563 323.319641113281 165.029617309570 0.000978 0.000978 0.999999
144.805175781250 294.553588867188 165.029617309570 0.000978 0.000978 0.999999
