//X Y Z Nx Ny Nz
615
-16.449813842773 12.584144592285 -10.018471717834 0.000978 0.000978 -0.999999
96.269500732422 24.452033996582 -10.018429756165 0.000978 0.000978 -0.999999
-12.978866577148 5.395170211792 -10.018497467041 0.000978 0.000978 -0.999999
-102.440170288086 -6.629187583923 -10.018539428711 0.000978 0.000978 -0.999999
116.986938476563 23.699983596802 -10.018432617188 0.000978 0.000978 -0.999999
-57.481613159180 13.407503128052 -10.018469810486 0.000978 0.000978 -0.999999
133.850128173828 24.300998687744 -10.018430709839 0.000978 0.000978 -0.999999
-78.179977416992 13.913496017456 -10.018466949463 0.000978 0.000978 -0.999999
85.213333129883 22.020214080811 -10.018438339233 0.000978 0.000978 -0.999999
-3.494491577148 21.547479629517 -10.018440246582 0.000978 0.000978 -0.999999
-72.435958862305 10.257260322571 -10.018480300903 0.000978 0.000978 -0.999999
20.209121704102 5.012908935547 -10.018499374390 0.000978 0.000978 -0.999999
37.865325927734 10.784185409546 -10.018478393555 0.000978 0.000978 -0.999999
-78.142349243164 25.009241104126 -10.018427848816 0.000978 0.000978 -0.999999
-56.208702087402 17.548791885376 -10.018454551697 0.000978 0.000978 -0.999999
-105.403038024902 5.671165466309 -10.018496513367 0.000978 0.000978 -0.999999
-147.679992675781 8.465166091919 -10.018486976624 0.000978 0.000978 -0.999999
-42.866409301758 -0.723340988159 -10.018519401550 0.000978 0.000978 -0.999999
48.467544555664 19.546802520752 -10.018447875977 0.000978 0.000978 -0.999999
-72.809143066406 22.707572937012 -10.018436431885 0.000978 0.000978 -0.999999
-8.439651489258 6.301391601563 -10.018494606018 0.000978 0.000978 -0.999999
-142.805160522461 -5.190820217133 -10.018534660339 0.000978 0.000978 -0.999999
-84.308494567871 -4.656153678894 -10.018532752991 0.000978 0.000978 -0.999999
-75.111114501953 20.198371887207 -10.018445014954 0.000978 0.000978 -0.999999
-91.082206726074 -2.252366065979 -10.018524169922 0.000978 0.000978 -0.999999
-22.314071655273 -1.363294601440 -10.018521308899 0.000978 0.000978 -0.999999
86.892547607422 16.987052917480 -10.018456459045 0.000978 0.000978 -0.999999
-121.679718017578 -9.137309074402 -10.018548965454 0.000978 0.000978 -0.999999
-37.751846313477 23.634738922119 -10.018433570862 0.000978 0.000978 -0.999999
-59.714424133301 -1.727888107300 -10.018522262573 0.000978 0.000978 -0.999999
-35.678054809570 -0.253984451294 -10.018517494202 0.000978 0.000978 -0.999999
116.670288085938 23.322713851929 -10.018434524536 0.000978 0.000978 -0.999999
-105.045654296875 1.163740158081 -10.018512725830 0.000978 0.000978 -0.999999
-155.769683837891 6.741813659668 -10.018492698669 0.000978 0.000978 -0.999999
-27.315750122070 -1.233869552612 -10.018520355225 0.000978 0.000978 -0.999999
-33.319610595703 4.737576484680 -10.018500328064 0.000978 0.000978 -0.999999
-164.422973632813 -3.670829772949 -10.018529891968 0.000978 0.000978 -0.999999
4.383895874023 5.063402175903 -10.018498420715 0.000978 0.000978 -0.999999
-69.839157104492 1.031515121460 -10.018513679504 0.000978 0.000978 -0.999999
-73.507186889648 17.233894348145 -10.018455505371 0.000978 0.000978 -0.999999
-70.563735961914 7.060539245605 -10.018491744995 0.000978 0.000978 -0.999999
-131.350555419922 4.185204505920 -10.018502235413 0.000978 0.000978 -0.999999
-89.300430297852 15.554068565369 -10.018461227417 0.000978 0.000978 -0.999999
-8.576644897461 20.500104904175 -10.018444061279 0.000978 0.000978 -0.999999
-147.861389160156 3.378571033478 -10.018505096436 0.000978 0.000978 -0.999999
19.127059936523 13.801311492920 -10.018467903137 0.000978 0.000978 -0.999999
-127.889167785645 15.321046829224 -10.018462181091 0.000978 0.000978 -0.999999
-41.584930419922 16.028705596924 -10.018460273743 0.000978 0.000978 -0.999999
67.854629516602 16.650989532471 -10.018458366394 0.000978 0.000978 -0.999999
-113.973434448242 9.575085639954 -10.018483161926 0.000978 0.000978 -0.999999
-165.441909790039 8.997242927551 -10.018485069275 0.000978 0.000978 -0.999999
-138.814132690430 14.598100662231 -10.018465042114 0.000978 0.000978 -0.999999
147.788818359375 24.229860305786 -10.018430709839 0.000978 0.000978 -0.999999
-84.240089416504 4.880268096924 -10.018499374390 0.000978 0.000978 -0.999999
-42.341156005859 15.134687423706 -10.018463134766 0.000978 0.000978 -0.999999
-82.738563537598 6.735983848572 -10.018493652344 0.000978 0.000978 -0.999999
64.606063842773 19.574848175049 -10.018446922302 0.000978 0.000978 -0.999999
124.690032958984 21.699651718140 -10.018440246582 0.000978 0.000978 -0.999999
11.128372192383 2.353147506714 -10.018507957458 0.000978 0.000978 -0.999999
-129.287582397461 -0.326135635376 -10.018517494202 0.000978 0.000978 -0.999999
-112.349517822266 20.120021820068 -10.018445968628 0.000978 0.000978 -0.999999
79.803314208984 20.557275772095 -10.018444061279 0.000978 0.000978 -0.999999
51.505752563477 21.085565567017 -10.018442153931 0.000978 0.000978 -0.999999
-45.132194519043 22.498554229736 -10.018437385559 0.000978 0.000978 -0.999999
-93.481918334961 -10.050590515137 -10.018551826477 0.000978 0.000978 -0.999999
-112.388000488281 3.114029884338 -10.018506050110 0.000978 0.000978 -0.999999
65.072143554688 11.345819473267 -10.018476486206 0.000978 0.000978 -0.999999
-143.570709228516 12.990202903748 -10.018470764160 0.000978 0.000978 -0.999999
-85.777717590332 10.101165771484 -10.018480300903 0.000978 0.000978 -0.999999
19.594894409180 13.800773620605 -10.018467903137 0.000978 0.000978 -0.999999
-74.804618835449 9.736646652222 -10.018482208252 0.000978 0.000978 -0.999999
0.789703369141 14.930852890015 -10.018464088440 0.000978 0.000978 -0.999999
-4.902786254883 6.590963363647 -10.018492698669 0.000978 0.000978 -0.999999
-82.959144592285 1.189208984375 -10.018512725830 0.000978 0.000978 -0.999999
-13.865783691406 11.509798049927 -10.018475532532 0.000978 0.000978 -0.999999
-117.076141357422 20.996219635010 -10.018442153931 0.000978 0.000978 -0.999999
-87.185195922852 -11.681941986084 -10.018557548523 0.000978 0.000978 -0.999999
-150.237457275391 11.174937248230 -10.018476486206 0.000978 0.000978 -0.999999
-116.064582824707 -10.861852645874 -10.018555641174 0.000978 0.000978 -0.999999
-166.278518676758 23.415243148804 -10.018433570862 0.000978 0.000978 -0.999999
-44.496147155762 21.648618698120 -10.018440246582 0.000978 0.000978 -0.999999
16.561416625977 8.080949783325 -10.018487930298 0.000978 0.000978 -0.999999
-2.025650024414 13.112812995911 -10.018470764160 0.000978 0.000978 -0.999999
47.623001098633 10.019353866577 -10.018481254578 0.000978 0.000978 -0.999999
-147.842559814453 -12.241754531860 -10.018559455872 0.000978 0.000978 -0.999999
55.732009887695 21.043392181396 -10.018442153931 0.000978 0.000978 -0.999999
-41.487075805664 6.399525642395 -10.018493652344 0.000978 0.000978 -0.999999
25.846878051758 23.947742462158 -10.018431663513 0.000978 0.000978 -0.999999
92.555969238281 16.216306686401 -10.018459320068 0.000978 0.000978 -0.999999
34.995101928711 7.172389984131 -10.018490791321 0.000978 0.000978 -0.999999
22.358367919922 22.752901077271 -10.018435478210 0.000978 0.000978 -0.999999
-103.302124023438 18.684720993042 -10.018450737000 0.000978 0.000978 -0.999999
-140.664947509766 14.559298515320 -10.018465042114 0.000978 0.000978 -0.999999
-16.908569335938 20.926240921021 -10.018443107605 0.000978 0.000978 -0.999999
124.966857910156 20.410476684570 -10.018445014954 0.000978 0.000978 -0.999999
-6.182205200195 22.936697006226 -10.018435478210 0.000978 0.000978 -0.999999
-166.028625488281 -6.318697452545 -10.018539428711 0.000978 0.000978 -0.999999
-111.801254272461 14.636426925659 -10.018465042114 0.000978 0.000978 -0.999999
-122.325393676758 24.222347259521 -10.018430709839 0.000978 0.000978 -0.999999
-5.277435302734 13.559982299805 -10.018467903137 0.000978 0.000978 -0.999999
-27.503997802734 17.544067382813 -10.018454551697 0.000978 0.000978 -0.999999
38.279388427734 6.689884185791 -10.018493652344 0.000978 0.000978 -0.999999
72.533645629883 16.496278762817 -10.018458366394 0.000978 0.000978 -0.999999
-12.656295776367 22.921665191650 -10.018435478210 0.000978 0.000978 -0.999999
20.294555664063 9.695947647095 -10.018482208252 0.000978 0.000978 -0.999999
-61.562881469727 17.773906707764 -10.018453598022 0.000978 0.000978 -0.999999
-10.483459472656 7.179172515869 -10.018490791321 0.000978 0.000978 -0.999999
-155.405059814453 21.803771972656 -10.018439292908 0.000978 0.000978 -0.999999
-141.801086425781 15.543420791626 -10.018462181091 0.000978 0.000978 -0.999999
-95.253463745117 18.336597442627 -10.018451690674 0.000978 0.000978 -0.999999
-111.768722534180 13.096195220947 -10.018469810486 0.000978 0.000978 -0.999999
-55.518119812012 13.950277328491 -10.018467903137 0.000978 0.000978 -0.999999
-71.113792419434 8.268131256104 -10.018486976624 0.000978 0.000978 -0.999999
-115.307518005371 -10.837782859802 -10.018554687500 0.000978 0.000978 -0.999999
-48.314674377441 5.568731307983 -10.018497467041 0.000978 0.000978 -0.999999
2.160003662109 1.996524810791 -10.018508911133 0.000978 0.000978 -0.999999
-6.378433227539 12.091863632202 -10.018473625183 0.000978 0.000978 -0.999999
-128.211807250977 4.114493370056 -10.018502235413 0.000978 0.000978 -0.999999
-125.006355285645 16.804231643677 -10.018457412720 0.000978 0.000978 -0.999999
21.494384765625 4.126483917236 -10.018502235413 0.000978 0.000978 -0.999999
-3.376663208008 7.867452621460 -10.018488883972 0.000978 0.000978 -0.999999
82.552505493164 15.145776748657 -10.018463134766 0.000978 0.000978 -0.999999
19.146682739258 5.150550842285 -10.018498420715 0.000978 0.000978 -0.999999
-165.425933837891 -22.319049835205 -10.018595695496 0.000978 0.000978 -0.999999
-114.560317993164 9.384680747986 -10.018483161926 0.000978 0.000978 -0.999999
-132.812591552734 10.173440933228 -10.018481254578 0.000978 0.000978 -0.999999
6.292434692383 23.451593399048 -10.018433570862 0.000978 0.000978 -0.999999
-87.429931640625 24.084482192993 -10.018431663513 0.000978 0.000978 -0.999999
-52.905502319336 19.339099884033 -10.018447875977 0.000978 0.000978 -0.999999
-162.501068115234 -1.593235969543 -10.018522262573 0.000978 0.000978 -0.999999
-97.925476074219 -10.407510757446 -10.018553733826 0.000978 0.000978 -0.999999
-65.160720825195 1.156902313232 -10.018512725830 0.000978 0.000978 -0.999999
29.869705200195 5.490161895752 -10.018496513367 0.000978 0.000978 -0.999999
62.486434936523 11.555156707764 -10.018476486206 0.000978 0.000978 -0.999999
8.265716552734 3.925365447998 -10.018502235413 0.000978 0.000978 -0.999999
-111.006683349609 8.775516510010 -10.018486022949 0.000978 0.000978 -0.999999
-39.761474609375 20.104284286499 -10.018445014954 0.000978 0.000978 -0.999999
-82.234428405762 21.363161087036 -10.018441200256 0.000978 0.000978 -0.999999
146.559814453125 21.757705688477 -10.018440246582 0.000978 0.000978 -0.999999
-26.599426269531 22.710645675659 -10.018436431885 0.000978 0.000978 -0.999999
-104.176467895508 8.949908256531 -10.018485069275 0.000978 0.000978 -0.999999
-163.907791137695 -21.375389099121 -10.018591880798 0.000978 0.000978 -0.999999
-157.296798706055 -11.352386474609 -10.018556594849 0.000978 0.000978 -0.999999
-112.775810241699 0.874714851379 -10.018513679504 0.000978 0.000978 -0.999999
-166.911834716797 -21.461357116699 -10.018591880798 0.000978 0.000978 -0.999999
-124.096260070801 4.318999290466 -10.018501281738 0.000978 0.000978 -0.999999
-31.774002075195 24.739311218262 -10.018429756165 0.000978 0.000978 -0.999999
-152.910949707031 1.078387260437 -10.018512725830 0.000978 0.000978 -0.999999
-127.705078125000 -7.777047157288 -10.018544197083 0.000978 0.000978 -0.999999
-99.944335937500 9.231378555298 -10.018484115601 0.000978 0.000978 -0.999999
49.295791625977 17.981714248657 -10.018453598022 0.000978 0.000978 -0.999999
16.880966186523 4.647094726563 -10.018499374390 0.000978 0.000978 -0.999999
-159.688613891602 -14.475419998169 -10.018567085266 0.000978 0.000978 -0.999999
-83.930862426758 -0.629853248596 -10.018518447876 0.000978 0.000978 -0.999999
-112.124969482422 17.386533737183 -10.018455505371 0.000978 0.000978 -0.999999
-9.878295898438 -0.094755172729 -10.018516540527 0.000978 0.000978 -0.999999
-39.630096435547 18.602592468262 -10.018450737000 0.000978 0.000978 -0.999999
-167.965454101563 -19.620851516724 -10.018586158752 0.000978 0.000978 -0.999999
-162.051940917969 -15.641317367554 -10.018571853638 0.000978 0.000978 -0.999999
14.913787841797 6.389835357666 -10.018493652344 0.000978 0.000978 -0.999999
12.714324951172 16.583374023438 -10.018458366394 0.000978 0.000978 -0.999999
-155.208145141602 -3.745573520660 -10.018529891968 0.000978 0.000978 -0.999999
-59.232940673828 22.517662048340 -10.018437385559 0.000978 0.000978 -0.999999
68.167449951172 21.650384902954 -10.018439292908 0.000978 0.000978 -0.999999
120.611907958984 24.924303054810 -10.018428802490 0.000978 0.000978 -0.999999
-48.855354309082 24.482992172241 -10.018429756165 0.000978 0.000978 -0.999999
36.260528564453 7.815465927124 -10.018488883972 0.000978 0.000978 -0.999999
-155.307128906250 19.872886657715 -10.018445968628 0.000978 0.000978 -0.999999
-159.432388305664 -20.199592590332 -10.018587112427 0.000978 0.000978 -0.999999
-115.586227416992 4.342986106873 -10.018501281738 0.000978 0.000978 -0.999999
107.391296386719 20.917634963989 -10.018443107605 0.000978 0.000978 -0.999999
-135.141448974609 8.695099830627 -10.018486022949 0.000978 0.000978 -0.999999
-73.091384887695 -10.477895736694 -10.018552780151 0.000978 0.000978 -0.999999
-160.457412719727 -10.077651023865 -10.018551826477 0.000978 0.000978 -0.999999
-54.514205932617 -2.316902160645 -10.018524169922 0.000978 0.000978 -0.999999
21.099990844727 6.478443145752 -10.018493652344 0.000978 0.000978 -0.999999
-143.390014648438 4.886850357056 -10.018499374390 0.000978 0.000978 -0.999999
-8.956253051758 6.481872558594 -10.018493652344 0.000978 0.000978 -0.999999
-0.633758544922 3.110155105591 -10.018506050110 0.000978 0.000978 -0.999999
-80.516990661621 13.527977943420 -10.018468856812 0.000978 0.000978 -0.999999
-30.924804687500 1.559696197510 -10.018510818481 0.000978 0.000978 -0.999999
82.607742309570 16.538253784180 -10.018458366394 0.000978 0.000978 -0.999999
-41.792633056641 17.280195236206 -10.018455505371 0.000978 0.000978 -0.999999
106.246063232422 20.045709609985 -10.018445968628 0.000978 0.000978 -0.999999
-73.924026489258 17.502014160156 -10.018455505371 0.000978 0.000978 -0.999999
45.109756469727 20.097534179688 -10.018445968628 0.000978 0.000978 -0.999999
25.454925537109 23.687841415405 -10.018433570862 0.000978 0.000978 -0.999999
-31.796096801758 16.511278152466 -10.018458366394 0.000978 0.000978 -0.999999
16.321594238281 11.654761314392 -10.018475532532 0.000978 0.000978 -0.999999
124.771911621094 20.885063171387 -10.018443107605 0.000978 0.000978 -0.999999
-98.323150634766 -9.889283180237 -10.018551826477 0.000978 0.000978 -0.999999
164.957061767578 24.675285339355 -10.018429756165 0.000978 0.000978 -0.999999
-130.858978271484 3.311245441437 -10.018505096436 0.000978 0.000978 -0.999999
-166.019439697266 -20.560768127441 -10.018589019775 0.000978 0.000978 -0.999999
-97.961502075195 22.665117263794 -10.018436431885 0.000978 0.000978 -0.999999
-116.508674621582 24.649105072021 -10.018429756165 0.000978 0.000978 -0.999999
-85.341163635254 -9.926012039185 -10.018551826477 0.000978 0.000978 -0.999999
-143.954559326172 -10.128735542297 -10.018552780151 0.000978 0.000978 -0.999999
-2.463500976563 16.615486145020 -10.018458366394 0.000978 0.000978 -0.999999
-139.892074584961 -10.214480400085 -10.018552780151 0.000978 0.000978 -0.999999
-157.261627197266 18.392381668091 -10.018451690674 0.000978 0.000978 -0.999999
-48.120193481445 4.927773475647 -10.018499374390 0.000978 0.000978 -0.999999
-110.441848754883 10.805510520935 -10.018478393555 0.000978 0.000978 -0.999999
-134.691558837891 15.080337524414 -10.018463134766 0.000978 0.000978 -0.999999
148.560638427734 23.983264923096 -10.018432617188 0.000978 0.000978 -0.999999
-69.853645324707 13.152079582214 -10.018470764160 0.000978 0.000978 -0.999999
-34.512344360352 9.396864891052 -10.018483161926 0.000978 0.000978 -0.999999
-141.264266967773 23.648691177368 -10.018432617188 0.000978 0.000978 -0.999999
-40.058746337891 13.172210693359 -10.018469810486 0.000978 0.000978 -0.999999
73.348571777344 19.510009765625 -10.018447875977 0.000978 0.000978 -0.999999
-161.276367187500 -9.061567306519 -10.018548011780 0.000978 0.000978 -0.999999
-48.424163818359 19.542722702026 -10.018447875977 0.000978 0.000978 -0.999999
-95.675422668457 -11.719294548035 -10.018558502197 0.000978 0.000978 -0.999999
-162.856887817383 10.610165596008 -10.018479347229 0.000978 0.000978 -0.999999
-12.884017944336 10.669610023499 -10.018479347229 0.000978 0.000978 -0.999999
19.016372680664 9.412429809570 -10.018483161926 0.000978 0.000978 -0.999999
-4.742889404297 20.790105819702 -10.018443107605 0.000978 0.000978 -0.999999
-137.691238403320 4.079371452332 -10.018501281738 0.000978 0.000978 -0.999999
31.357391357422 21.964866638184 -10.018438339233 0.000978 0.000978 -0.999999
84.931243896484 13.308343887329 -10.018468856812 0.000978 0.000978 -0.999999
51.816040039063 24.694536209106 -10.018428802490 0.000978 0.000978 -0.999999
-111.229362487793 -15.239257812500 -10.018569946289 0.000978 0.000978 -0.999999
81.054275512695 18.858789443970 -10.018449783325 0.000978 0.000978 -0.999999
-113.551620483398 -14.940512657166 -10.018568992615 0.000978 0.000978 -0.999999
-150.422363281250 0.012086391449 -10.018516540527 0.000978 0.000978 -0.999999
-17.207702636719 6.257362365723 -10.018494606018 0.000978 0.000978 -0.999999
-56.325927734375 6.116944313049 -10.018494606018 0.000978 0.000978 -0.999999
-90.233840942383 -7.577177047729 -10.018543243408 0.000978 0.000978 -0.999999
-0.301635742188 10.229864120483 -10.018480300903 0.000978 0.000978 -0.999999
-168.137924194336 -21.578340530396 -10.018592834473 0.000978 0.000978 -0.999999
-74.417991638184 21.485757827759 -10.018441200256 0.000978 0.000978 -0.999999
100.982391357422 18.549903869629 -10.018451690674 0.000978 0.000978 -0.999999
-167.059173583984 1.380207538605 -10.018510818481 0.000978 0.000978 -0.999999
-25.079116821289 8.179138183594 -10.018487930298 0.000978 0.000978 -0.999999
-154.411499023438 4.943831443787 -10.018499374390 0.000978 0.000978 -0.999999
-122.365806579590 12.234882354736 -10.018473625183 0.000978 0.000978 -0.999999
-98.800018310547 18.203235626221 -10.018451690674 0.000978 0.000978 -0.999999
-51.474082946777 11.806449890137 -10.018475532532 0.000978 0.000978 -0.999999
7.878845214844 6.771310806274 -10.018492698669 0.000978 0.000978 -0.999999
-17.982025146484 24.416622161865 -10.018429756165 0.000978 0.000978 -0.999999
-149.394531250000 -8.837689399719 -10.018548011780 0.000978 0.000978 -0.999999
38.328735351563 14.423040390015 -10.018465995789 0.000978 0.000978 -0.999999
80.141204833984 19.035285949707 -10.018449783325 0.000978 0.000978 -0.999999
-39.237854003906 9.896058082581 -10.018482208252 0.000978 0.000978 -0.999999
-145.474731445313 -16.293270111084 -10.018574714661 0.000978 0.000978 -0.999999
-143.608398437500 -2.651144981384 -10.018526077271 0.000978 0.000978 -0.999999
-19.604904174805 20.769617080688 -10.018443107605 0.000978 0.000978 -0.999999
-118.631561279297 21.871221542358 -10.018439292908 0.000978 0.000978 -0.999999
-98.951805114746 24.301280975342 -10.018430709839 0.000978 0.000978 -0.999999
-129.395568847656 18.623073577881 -10.018450737000 0.000978 0.000978 -0.999999
-8.028152465820 12.605763435364 -10.018471717834 0.000978 0.000978 -0.999999
-64.961730957031 15.874727249146 -10.018460273743 0.000978 0.000978 -0.999999
47.019958496094 24.566228866577 -10.018429756165 0.000978 0.000978 -0.999999
-19.722976684570 19.800689697266 -10.018445968628 0.000978 0.000978 -0.999999
27.659881591797 5.629709243774 -10.018496513367 0.000978 0.000978 -0.999999
17.420272827148 14.690210342407 -10.018465042114 0.000978 0.000978 -0.999999
-138.387985229492 -19.909069061279 -10.018587112427 0.000978 0.000978 -0.999999
78.425521850586 23.070053100586 -10.018435478210 0.000978 0.000978 -0.999999
-111.058273315430 15.932824134827 -10.018460273743 0.000978 0.000978 -0.999999
-43.746543884277 8.402550697327 -10.018486976624 0.000978 0.000978 -0.999999
-104.920112609863 1.768461227417 -10.018510818481 0.000978 0.000978 -0.999999
-6.214019775391 3.020732879639 -10.018506050110 0.000978 0.000978 -0.999999
-156.729278564453 -16.859210968018 -10.018576622009 0.000978 0.000978 -0.999999
65.082641601563 17.698833465576 -10.018453598022 0.000978 0.000978 -0.999999
109.864135742188 18.045284271240 -10.018453598022 0.000978 0.000978 -0.999999
-92.547164916992 8.274636268616 -10.018487930298 0.000978 0.000978 -0.999999
-58.475357055664 3.032259941101 -10.018505096436 0.000978 0.000978 -0.999999
-165.811233520508 -18.055603027344 -10.018580436707 0.000978 0.000978 -0.999999
16.639129638672 5.463489532471 -10.018496513367 0.000978 0.000978 -0.999999
-132.325851440430 14.857282638550 -10.018465042114 0.000978 0.000978 -0.999999
-37.243850708008 3.706165313721 -10.018504142761 0.000978 0.000978 -0.999999
-105.978233337402 22.228305816650 -10.018438339233 0.000978 0.000978 -0.999999
-159.773071289063 -2.440319061279 -10.018525123596 0.000978 0.000978 -0.999999
-169.498443603516 -6.307735443115 -10.018539428711 0.000978 0.000978 -0.999999
26.613159179688 15.910866737366 -10.018460273743 0.000978 0.000978 -0.999999
-90.025161743164 -2.913305282593 -10.018526077271 0.000978 0.000978 -0.999999
-77.606529235840 12.740405082703 -10.018471717834 0.000978 0.000978 -0.999999
-106.181877136230 11.544978141785 -10.018475532532 0.000978 0.000978 -0.999999
-78.224632263184 22.681951522827 -10.018436431885 0.000978 0.000978 -0.999999
148.146606445313 24.418895721436 -10.018430709839 0.000978 0.000978 -0.999999
-141.199310302734 10.346265792847 -10.018479347229 0.000978 0.000978 -0.999999
-150.705596923828 18.412326812744 -10.018451690674 0.000978 0.000978 -0.999999
-87.369056701660 24.314649581909 -10.018430709839 0.000978 0.000978 -0.999999
-59.920982360840 3.992061614990 -10.018502235413 0.000978 0.000978 -0.999999
-161.360702514648 -2.409303665161 -10.018525123596 0.000978 0.000978 -0.999999
102.607818603516 24.076614379883 -10.018431663513 0.000978 0.000978 -0.999999
-132.655395507813 19.819192886353 -10.018446922302 0.000978 0.000978 -0.999999
-81.484947204590 22.768556594849 -10.018436431885 0.000978 0.000978 -0.999999
-4.560089111328 1.956605911255 -10.018509864807 0.000978 0.000978 -0.999999
-118.509498596191 18.461994171143 -10.018451690674 0.000978 0.000978 -0.999999
-35.944778442383 21.749622344971 -10.018439292908 0.000978 0.000978 -0.999999
-107.901962280273 -9.617115020752 -10.018549919128 0.000978 0.000978 -0.999999
-157.917449951172 4.599260807037 -10.018500328064 0.000978 0.000978 -0.999999
-8.183944702148 -0.011404037476 -10.018516540527 0.000978 0.000978 -0.999999
-34.269302368164 -3.587097167969 -10.018528938293 0.000978 0.000978 -0.999999
-118.272308349609 8.947682380676 -10.018485069275 0.000978 0.000978 -0.999999
109.173461914063 17.841497421265 -10.018453598022 0.000978 0.000978 -0.999999
-47.481369018555 19.752170562744 -10.018446922302 0.000978 0.000978 -0.999999
61.934280395508 17.936038970947 -10.018453598022 0.000978 0.000978 -0.999999
-94.776718139648 -0.881408691406 -10.018519401550 0.000978 0.000978 -0.999999
-126.124435424805 -7.034243583679 -10.018541336060 0.000978 0.000978 -0.999999
-110.181167602539 -13.539028167725 -10.018564224243 0.000978 0.000978 -0.999999
13.860412597656 14.618387222290 -10.018465042114 0.000978 0.000978 -0.999999
-68.630622863770 24.054203033447 -10.018431663513 0.000978 0.000978 -0.999999
21.061126708984 24.285121917725 -10.018430709839 0.000978 0.000978 -0.999999
-130.302337646484 24.866720199585 -10.018428802490 0.000978 0.000978 -0.999999
-121.965209960938 11.803958892822 -10.018474578857 0.000978 0.000978 -0.999999
30.175430297852 4.577991485596 -10.018500328064 0.000978 0.000978 -0.999999
-96.461448669434 -10.836113929749 -10.018554687500 0.000978 0.000978 -0.999999
-121.825576782227 16.262382507324 -10.018459320068 0.000978 0.000978 -0.999999
-93.776649475098 -4.944452285767 -10.018534660339 0.000978 0.000978 -0.999999
-163.424728393555 22.971374511719 -10.018435478210 0.000978 0.000978 -0.999999
91.333251953125 14.156929016113 -10.018466949463 0.000978 0.000978 -0.999999
107.851043701172 22.445457458496 -10.018437385559 0.000978 0.000978 -0.999999
-100.743347167969 -2.062145233154 -10.018523216248 0.000978 0.000978 -0.999999
-94.446174621582 -11.681918144226 -10.018557548523 0.000978 0.000978 -0.999999
-75.195823669434 1.049200057983 -10.018512725830 0.000978 0.000978 -0.999999
42.774581909180 16.879409790039 -10.018456459045 0.000978 0.000978 -0.999999
51.238494873047 23.652225494385 -10.018433570862 0.000978 0.000978 -0.999999
-138.172332763672 0.700242996216 -10.018514633179 0.000978 0.000978 -0.999999
-60.956909179688 14.060420989990 -10.018466949463 0.000978 0.000978 -0.999999
68.203475952148 23.634876251221 -10.018432617188 0.000978 0.000978 -0.999999
53.266189575195 14.794925689697 -10.018465042114 0.000978 0.000978 -0.999999
-89.346244812012 -8.737783432007 -10.018547058105 0.000978 0.000978 -0.999999
-133.853149414063 -7.878508567810 -10.018544197083 0.000978 0.000978 -0.999999
61.463653564453 23.058980941772 -10.018435478210 0.000978 0.000978 -0.999999
102.729125976563 24.167648315430 -10.018431663513 0.000978 0.000978 -0.999999
-142.735549926758 -19.606454849243 -10.018585205078 0.000978 0.000978 -0.999999
-126.982620239258 -10.203514099121 -10.018552780151 0.000978 0.000978 -0.999999
0.577178955078 10.789196968079 -10.018478393555 0.000978 0.000978 -0.999999
33.544616699219 14.231055259705 -10.018465995789 0.000978 0.000978 -0.999999
-155.719741821289 1.525925159454 -10.018510818481 0.000978 0.000978 -0.999999
-168.747756958008 -2.615359067917 -10.018525123596 0.000978 0.000978 -0.999999
-117.654891967773 -2.219098091125 -10.018525123596 0.000978 0.000978 -0.999999
-153.615203857422 -8.415887832642 -10.018546104431 0.000978 0.000978 -0.999999
-118.384384155273 23.254060745239 -10.018434524536 0.000978 0.000978 -0.999999
56.114105224609 20.234184265137 -10.018445014954 0.000978 0.000978 -0.999999
-5.789505004883 19.792764663696 -10.018446922302 0.000978 0.000978 -0.999999
-103.461235046387 12.902038574219 -10.018470764160 0.000978 0.000978 -0.999999
55.990371704102 8.792194366455 -10.018485069275 0.000978 0.000978 -0.999999
91.434509277344 20.761047363281 -10.018443107605 0.000978 0.000978 -0.999999
-57.660011291504 0.983334541321 -10.018512725830 0.000978 0.000978 -0.999999
-116.575752258301 0.936062335968 -10.018513679504 0.000978 0.000978 -0.999999
-155.132843017578 8.634338378906 -10.018486022949 0.000978 0.000978 -0.999999
-64.593040466309 -8.005571365356 -10.018545150757 0.000978 0.000978 -0.999999
-99.117561340332 1.376817703247 -10.018510818481 0.000978 0.000978 -0.999999
16.908538818359 17.788253784180 -10.018453598022 0.000978 0.000978 -0.999999
-166.028823852539 -15.333355903625 -10.018570899963 0.000978 0.000978 -0.999999
-164.764678955078 -21.232799530029 -10.018590927124 0.000978 0.000978 -0.999999
-127.016654968262 20.857063293457 -10.018443107605 0.000978 0.000978 -0.999999
86.251434326172 13.768728256226 -10.018467903137 0.000978 0.000978 -0.999999
-97.216903686523 8.237309455872 -10.018486976624 0.000978 0.000978 -0.999999
93.732360839844 19.763898849487 -10.018445968628 0.000978 0.000978 -0.999999
-117.929855346680 12.731780052185 -10.018471717834 0.000978 0.000978 -0.999999
25.929916381836 4.357099533081 -10.018500328064 0.000978 0.000978 -0.999999
-43.074752807617 -6.103860855103 -10.018538475037 0.000978 0.000978 -0.999999
-75.028778076172 -3.195512771606 -10.018527030945 0.000978 0.000978 -0.999999
-157.321365356445 7.957151412964 -10.018487930298 0.000978 0.000978 -0.999999
108.961029052734 19.705451965332 -10.018446922302 0.000978 0.000978 -0.999999
-116.088882446289 6.390609741211 -10.018494606018 0.000978 0.000978 -0.999999
-76.678100585938 15.951066970825 -10.018460273743 0.000978 0.000978 -0.999999
-18.881011962891 1.570852279663 -10.018510818481 0.000978 0.000978 -0.999999
-169.663574218750 6.386715412140 -10.018494606018 0.000978 0.000978 -0.999999
-99.597167968750 -8.510338783264 -10.018547058105 0.000978 0.000978 -0.999999
4.686904907227 20.296480178833 -10.018445014954 0.000978 0.000978 -0.999999
-19.932510375977 4.216941833496 -10.018501281738 0.000978 0.000978 -0.999999
-101.009078979492 -13.081897735596 -10.018562316895 0.000978 0.000978 -0.999999
-167.167358398438 -0.255742341280 -10.018516540527 0.000978 0.000978 -0.999999
-14.303298950195 12.719933509827 -10.018471717834 0.000978 0.000978 -0.999999
-23.439346313477 14.703063964844 -10.018464088440 0.000978 0.000978 -0.999999
-106.731506347656 9.415677070618 -10.018484115601 0.000978 0.000978 -0.999999
-66.464149475098 -5.866378784180 -10.018537521362 0.000978 0.000978 -0.999999
-95.143028259277 -7.222500801086 -10.018541336060 0.000978 0.000978 -0.999999
-38.265487670898 -2.337463378906 -10.018524169922 0.000978 0.000978 -0.999999
-133.141372680664 -7.526267528534 -10.018543243408 0.000978 0.000978 -0.999999
-122.278602600098 -14.951168060303 -10.018568992615 0.000978 0.000978 -0.999999
-120.400711059570 5.932361125946 -10.018495559692 0.000978 0.000978 -0.999999
77.101531982422 19.144138336182 -10.018449783325 0.000978 0.000978 -0.999999
92.395263671875 22.346984863281 -10.018437385559 0.000978 0.000978 -0.999999
-47.057174682617 7.260914802551 -10.018490791321 0.000978 0.000978 -0.999999
87.930603027344 24.688987731934 -10.018429756165 0.000978 0.000978 -0.999999
105.463317871094 15.841920852661 -10.018460273743 0.000978 0.000978 -0.999999
7.398269653320 16.377696990967 -10.018458366394 0.000978 0.000978 -0.999999
-21.641418457031 12.894214630127 -10.018470764160 0.000978 0.000978 -0.999999
-60.205337524414 -1.036375045776 -10.018520355225 0.000978 0.000978 -0.999999
-148.792053222656 -13.077417373657 -10.018562316895 0.000978 0.000978 -0.999999
-155.249710083008 20.048515319824 -10.018445968628 0.000978 0.000978 -0.999999
-81.388519287109 22.386541366577 -10.018437385559 0.000978 0.000978 -0.999999
-150.000701904297 -20.275691986084 -10.018588066101 0.000978 0.000978 -0.999999
-140.291305541992 24.526908874512 -10.018429756165 0.000978 0.000978 -0.999999
-39.390594482422 23.431203842163 -10.018433570862 0.000978 0.000978 -0.999999
-164.578338623047 24.336355209351 -10.018430709839 0.000978 0.000978 -0.999999
-49.724426269531 21.149314880371 -10.018442153931 0.000978 0.000978 -0.999999
-24.751235961914 1.284662246704 -10.018511772156 0.000978 0.000978 -0.999999
-150.803268432617 -13.253245353699 -10.018563270569 0.000978 0.000978 -0.999999
-115.139694213867 24.775253295898 -10.018428802490 0.000978 0.000978 -0.999999
-128.713973999023 -9.932989120483 -10.018551826477 0.000978 0.000978 -0.999999
-95.690689086914 17.879463195801 -10.018453598022 0.000978 0.000978 -0.999999
-35.843673706055 3.223587036133 -10.018505096436 0.000978 0.000978 -0.999999
121.543457031250 19.531558990479 -10.018446922302 0.000978 0.000978 -0.999999
94.727142333984 22.065830230713 -10.018438339233 0.000978 0.000978 -0.999999
-160.970458984375 -0.463899493217 -10.018518447876 0.000978 0.000978 -0.999999
78.896926879883 14.945728302002 -10.018464088440 0.000978 0.000978 -0.999999
-157.848907470703 23.870998382568 -10.018431663513 0.000978 0.000978 -0.999999
61.025299072266 23.798408508301 -10.018432617188 0.000978 0.000978 -0.999999
-164.468948364258 18.533840179443 -10.018450737000 0.000978 0.000978 -0.999999
-153.151153564453 11.337951660156 -10.018476486206 0.000978 0.000978 -0.999999
-41.506515502930 1.377634048462 -10.018511772156 0.000978 0.000978 -0.999999
-78.412422180176 -1.303457260132 -10.018521308899 0.000978 0.000978 -0.999999
-12.125793457031 8.526682853699 -10.018486022949 0.000978 0.000978 -0.999999
-2.216217041016 12.964982986450 -10.018470764160 0.000978 0.000978 -0.999999
-2.680892944336 4.675121307373 -10.018500328064 0.000978 0.000978 -0.999999
-139.051773071289 -8.852705001831 -10.018548011780 0.000978 0.000978 -0.999999
-111.026763916016 15.948569297791 -10.018460273743 0.000978 0.000978 -0.999999
-91.345520019531 9.419832229614 -10.018483161926 0.000978 0.000978 -0.999999
57.633834838867 10.220840454102 -10.018480300903 0.000978 0.000978 -0.999999
101.604858398438 23.876544952393 -10.018431663513 0.000978 0.000978 -0.999999
-123.193649291992 -15.814743995667 -10.018572807312 0.000978 0.000978 -0.999999
70.602020263672 17.889169692993 -10.018453598022 0.000978 0.000978 -0.999999
-40.215759277344 -4.016889572144 -10.018529891968 0.000978 0.000978 -0.999999
-161.818634033203 -17.899421691895 -10.018580436707 0.000978 0.000978 -0.999999
-102.013153076172 -2.231709480286 -10.018524169922 0.000978 0.000978 -0.999999
8.890502929688 23.999717712402 -10.018432617188 0.000978 0.000978 -0.999999
-164.699111938477 -13.371443748474 -10.018563270569 0.000978 0.000978 -0.999999
-102.851211547852 -2.962984085083 -10.018526077271 0.000978 0.000978 -0.999999
-140.700592041016 16.469917297363 -10.018458366394 0.000978 0.000978 -0.999999
14.039916992188 19.864459991455 -10.018446922302 0.000978 0.000978 -0.999999
-46.924148559570 -2.502050399780 -10.018525123596 0.000978 0.000978 -0.999999
-80.879821777344 13.574612617493 -10.018468856812 0.000978 0.000978 -0.999999
58.658187866211 9.043088912964 -10.018485069275 0.000978 0.000978 -0.999999
-118.663902282715 24.516269683838 -10.018429756165 0.000978 0.000978 -0.999999
122.793975830078 21.244516372681 -10.018442153931 0.000978 0.000978 -0.999999
57.154586791992 9.522699356079 -10.018482208252 0.000978 0.000978 -0.999999
-88.471519470215 23.238292694092 -10.018434524536 0.000978 0.000978 -0.999999
-12.042251586914 0.054910659790 -10.018516540527 0.000978 0.000978 -0.999999
-126.658615112305 16.789833068848 -10.018456459045 0.000978 0.000978 -0.999999
-163.161895751953 3.133774518967 -10.018505096436 0.000978 0.000978 -0.999999
-141.605667114258 -4.833240509033 -10.018533706665 0.000978 0.000978 -0.999999
1.880767822266 5.261808395386 -10.018497467041 0.000978 0.000978 -0.999999
-166.599365234375 -20.108076095581 -10.018587112427 0.000978 0.000978 -0.999999
-55.551437377930 20.219572067261 -10.018445014954 0.000978 0.000978 -0.999999
-74.116767883301 10.379270553589 -10.018480300903 0.000978 0.000978 -0.999999
-157.857131958008 13.358104705811 -10.018468856812 0.000978 0.000978 -0.999999
-131.671173095703 6.935406208038 -10.018491744995 0.000978 0.000978 -0.999999
-82.893264770508 11.044111251831 -10.018478393555 0.000978 0.000978 -0.999999
-60.579048156738 21.325891494751 -10.018441200256 0.000978 0.000978 -0.999999
-153.528533935547 -7.161884784698 -10.018541336060 0.000978 0.000978 -0.999999
-116.275512695313 7.008199691772 -10.018491744995 0.000978 0.000978 -0.999999
-92.538551330566 7.429960250854 -10.018490791321 0.000978 0.000978 -0.999999
36.885787963867 23.013925552368 -10.018434524536 0.000978 0.000978 -0.999999
-145.024597167969 7.451444149017 -10.018489837646 0.000978 0.000978 -0.999999
-123.891738891602 -1.802310466766 -10.018523216248 0.000978 0.000978 -0.999999
-153.145462036133 18.718379974365 -10.018450737000 0.000978 0.000978 -0.999999
-116.624526977539 -6.454732894897 -10.018539428711 0.000978 0.000978 -0.999999
-55.722000122070 -6.386606216431 -10.018539428711 0.000978 0.000978 -0.999999
-165.655532836914 -11.223459243774 -10.018556594849 0.000978 0.000978 -0.999999
-44.506729125977 21.225990295410 -10.018442153931 0.000978 0.000978 -0.999999
-156.302368164063 11.791186332703 -10.018475532532 0.000978 0.000978 -0.999999
-39.899536132813 14.097299575806 -10.018466949463 0.000978 0.000978 -0.999999
-101.523269653320 -5.220547676086 -10.018535614014 0.000978 0.000978 -0.999999
55.293655395508 9.924148559570 -10.018481254578 0.000978 0.000978 -0.999999
-40.052062988281 24.974523544312 -10.018427848816 0.000978 0.000978 -0.999999
-62.565345764160 1.158354759216 -10.018512725830 0.000978 0.000978 -0.999999
-61.138099670410 15.786281585693 -10.018461227417 0.000978 0.000978 -0.999999
-22.968109130859 1.133604049683 -10.018512725830 0.000978 0.000978 -0.999999
16.531356811523 7.159307479858 -10.018491744995 0.000978 0.000978 -0.999999
-12.732147216797 0.821645736694 -10.018513679504 0.000978 0.000978 -0.999999
-123.155860900879 11.122394561768 -10.018477439880 0.000978 0.000978 -0.999999
24.467788696289 23.160985946655 -10.018434524536 0.000978 0.000978 -0.999999
-49.045669555664 11.331600189209 -10.018476486206 0.000978 0.000978 -0.999999
-148.855743408203 14.344311714172 -10.018465042114 0.000978 0.000978 -0.999999
-152.918579101563 -2.093074560165 -10.018524169922 0.000978 0.000978 -0.999999
-148.470001220703 -21.479484558105 -10.018591880798 0.000978 0.000978 -0.999999
-111.704978942871 -15.395050048828 -10.018570899963 0.000978 0.000978 -0.999999
-154.858352661133 -2.914612770081 -10.018527030945 0.000978 0.000978 -0.999999
-34.487167358398 3.816734313965 -10.018503189087 0.000978 0.000978 -0.999999
-169.931594848633 -9.533555030823 -10.018549919128 0.000978 0.000978 -0.999999
-89.207946777344 21.963882446289 -10.018439292908 0.000978 0.000978 -0.999999
-117.968040466309 14.860949516296 -10.018464088440 0.000978 0.000978 -0.999999
84.058868408203 19.519960403442 -10.018447875977 0.000978 0.000978 -0.999999
31.159225463867 12.030166625977 -10.018474578857 0.000978 0.000978 -0.999999
-75.594108581543 -9.338189125061 -10.018549919128 0.000978 0.000978 -0.999999
-15.129913330078 0.715625762939 -10.018514633179 0.000978 0.000978 -0.999999
-0.593231201172 15.262524604797 -10.018463134766 0.000978 0.000978 -0.999999
-72.511436462402 18.954248428345 -10.018449783325 0.000978 0.000978 -0.999999
101.345458984375 22.465801239014 -10.018437385559 0.000978 0.000978 -0.999999
-106.128990173340 -13.034099578857 -10.018562316895 0.000978 0.000978 -0.999999
82.674057006836 14.235786437988 -10.018466949463 0.000978 0.000978 -0.999999
-77.499526977539 -0.827157020569 -10.018519401550 0.000978 0.000978 -0.999999
-143.630386352539 -18.482049942017 -10.018582344055 0.000978 0.000978 -0.999999
-148.463012695313 1.118939876556 -10.018512725830 0.000978 0.000978 -0.999999
-15.655578613281 2.359790802002 -10.018507957458 0.000978 0.000978 -0.999999
127.681365966797 23.692638397217 -10.018432617188 0.000978 0.000978 -0.999999
-128.971282958984 -9.985340118408 -10.018551826477 0.000978 0.000978 -0.999999
54.887619018555 23.391613006592 -10.018434524536 0.000978 0.000978 -0.999999
26.298538208008 20.745046615601 -10.018443107605 0.000978 0.000978 -0.999999
61.207824707031 21.129409790039 -10.018442153931 0.000978 0.000978 -0.999999
-73.958488464355 7.723086357117 -10.018489837646 0.000978 0.000978 -0.999999
-29.224990844727 20.046976089478 -10.018445014954 0.000978 0.000978 -0.999999
-93.031044006348 6.025593757629 -10.018495559692 0.000978 0.000978 -0.999999
-29.807815551758 17.409418106079 -10.018455505371 0.000978 0.000978 -0.999999
-147.761505126953 16.596603393555 -10.018458366394 0.000978 0.000978 -0.999999
-160.139892578125 -11.985887527466 -10.018559455872 0.000978 0.000978 -0.999999
-64.463287353516 9.730107307434 -10.018482208252 0.000978 0.000978 -0.999999
-72.607254028320 -6.473507881165 -10.018539428711 0.000978 0.000978 -0.999999
-135.177169799805 -6.137101650238 -10.018538475037 0.000978 0.000978 -0.999999
0.072372436523 21.639076232910 -10.018439292908 0.000978 0.000978 -0.999999
-131.857879638672 -10.016395568848 -10.018551826477 0.000978 0.000978 -0.999999
-27.150192260742 6.420054435730 -10.018493652344 0.000978 0.000978 -0.999999
-83.592941284180 -4.437547683716 -10.018531799316 0.000978 0.000978 -0.999999
43.544372558594 22.449865341187 -10.018437385559 0.000978 0.000978 -0.999999
-89.968460083008 8.011522293091 -10.018487930298 0.000978 0.000978 -0.999999
80.918548583984 14.740791320801 -10.018464088440 0.000978 0.000978 -0.999999
-79.559501647949 -5.150650024414 -10.018534660339 0.000978 0.000978 -0.999999
-19.447036743164 14.310914993286 -10.018465995789 0.000978 0.000978 -0.999999
-158.793609619141 -13.271915435791 -10.018563270569 0.000978 0.000978 -0.999999
62.409011840820 24.192974090576 -10.018431663513 0.000978 0.000978 -0.999999
-120.921928405762 3.144075393677 -10.018505096436 0.000978 0.000978 -0.999999
69.192764282227 23.812414169312 -10.018432617188 0.000978 0.000978 -0.999999
-74.458686828613 19.954319000244 -10.018445968628 0.000978 0.000978 -0.999999
-79.010253906250 4.609063148499 -10.018499374390 0.000978 0.000978 -0.999999
-90.374267578125 -0.157985687256 -10.018517494202 0.000978 0.000978 -0.999999
-4.074066162109 9.166578292847 -10.018484115601 0.000978 0.000978 -0.999999
-68.568992614746 16.737657546997 -10.018457412720 0.000978 0.000978 -0.999999
-101.701782226563 16.826330184937 -10.018457412720 0.000978 0.000978 -0.999999
-141.349334716797 -0.901339530945 -10.018519401550 0.000978 0.000978 -0.999999
89.585601806641 19.875104904175 -10.018446922302 0.000978 0.000978 -0.999999
-77.301261901855 9.708641052246 -10.018483161926 0.000978 0.000978 -0.999999
-18.565826416016 11.461679458618 -10.018476486206 0.000978 0.000978 -0.999999
-121.171127319336 5.325185298920 -10.018497467041 0.000978 0.000978 -0.999999
-71.478805541992 -9.883972167969 -10.018550872803 0.000978 0.000978 -0.999999
-30.572769165039 8.515905380249 -10.018486022949 0.000978 0.000978 -0.999999
-149.958847045898 6.342281341553 -10.018493652344 0.000978 0.000978 -0.999999
-131.431976318359 -8.183759689331 -10.018545150757 0.000978 0.000978 -0.999999
-93.986595153809 -12.583486557007 -10.018561363220 0.000978 0.000978 -0.999999
26.923675537109 13.346061706543 -10.018469810486 0.000978 0.000978 -0.999999
-137.872543334961 7.272180080414 -10.018491744995 0.000978 0.000978 -0.999999
-147.007476806641 11.690538406372 -10.018474578857 0.000978 0.000978 -0.999999
-28.025360107422 12.567035675049 -10.018472671509 0.000978 0.000978 -0.999999
-30.357940673828 10.580481529236 -10.018479347229 0.000978 0.000978 -0.999999
85.958557128906 16.699821472168 -10.018457412720 0.000978 0.000978 -0.999999
-102.886611938477 -6.743259429932 -10.018539428711 0.000978 0.000978 -0.999999
15.680572509766 8.884229660034 -10.018485069275 0.000978 0.000978 -0.999999
-136.779266357422 20.230298995972 -10.018445014954 0.000978 0.000978 -0.999999
54.108596801758 16.831573486328 -10.018457412720 0.000978 0.000978 -0.999999
88.840637207031 17.879972457886 -10.018453598022 0.000978 0.000978 -0.999999
45.695251464844 16.461532592773 -10.018458366394 0.000978 0.000978 -0.999999
-129.848648071289 4.899374961853 -10.018499374390 0.000978 0.000978 -0.999999
-156.422943115234 -15.671960830688 -10.018571853638 0.000978 0.000978 -0.999999
49.798339843750 19.274131774902 -10.018447875977 0.000978 0.000978 -0.999999
-44.474914550781 -2.062725067139 -10.018524169922 0.000978 0.000978 -0.999999
-33.711486816406 -4.242099761963 -10.018531799316 0.000978 0.000978 -0.999999
-63.896987915039 11.080709457397 -10.018477439880 0.000978 0.000978 -0.999999
-21.510147094727 3.885162353516 -10.018502235413 0.000978 0.000978 -0.999999
-20.136474609375 23.606687545776 -10.018432617188 0.000978 0.000978 -0.999999
-85.583793640137 8.208275794983 -10.018487930298 0.000978 0.000978 -0.999999
-143.964935302734 -5.593927860260 -10.018536567688 0.000978 0.000978 -0.999999
-165.626876831055 -23.904228210449 -10.018601417542 0.000978 0.000978 -0.999999
1.963119506836 1.492309570313 -10.018510818481 0.000978 0.000978 -0.999999
116.729339599609 20.522424697876 -10.018444061279 0.000978 0.000978 -0.999999
-165.642822265625 -0.997261643410 -10.018520355225 0.000978 0.000978 -0.999999
-50.239082336426 14.168972015381 -10.018466949463 0.000978 0.000978 -0.999999
-162.112213134766 -11.887132644653 -10.018558502197 0.000978 0.000978 -0.999999
-92.737403869629 -9.456142425537 -10.018549919128 0.000978 0.000978 -0.999999
-127.535522460938 21.551633834839 -10.018440246582 0.000978 0.000978 -0.999999
-127.885017395020 -7.328238964081 -10.018542289734 0.000978 0.000978 -0.999999
-116.229110717773 6.904923915863 -10.018492698669 0.000978 0.000978 -0.999999
-86.540672302246 -7.785127639771 -10.018544197083 0.000978 0.000978 -0.999999
-131.024810791016 5.423525333405 -10.018497467041 0.000978 0.000978 -0.999999
-98.464645385742 19.472461700439 -10.018447875977 0.000978 0.000978 -0.999999
4.943847656250 21.950477600098 -10.018439292908 0.000978 0.000978 -0.999999
-99.637260437012 19.264434814453 -10.018448829651 0.000978 0.000978 -0.999999
-167.962173461914 16.127676010132 -10.018459320068 0.000978 0.000978 -0.999999
-51.443115234375 11.892473220825 -10.018474578857 0.000978 0.000978 -0.999999
-2.594161987305 1.864446640015 -10.018509864807 0.000978 0.000978 -0.999999
-110.688735961914 17.857028961182 -10.018453598022 0.000978 0.000978 -0.999999
-106.566314697266 20.973930358887 -10.018442153931 0.000978 0.000978 -0.999999
-72.868209838867 1.853065490723 -10.018509864807 0.000978 0.000978 -0.999999
-118.454261779785 13.058891296387 -10.018470764160 0.000978 0.000978 -0.999999
-53.987632751465 0.564701080322 -10.018514633179 0.000978 0.000978 -0.999999
147.824951171875 21.891807556152 -10.018439292908 0.000978 0.000978 -0.999999
-141.433258056641 20.763496398926 -10.018443107605 0.000978 0.000978 -0.999999
-112.598632812500 -3.686112403870 -10.018529891968 0.000978 0.000978 -0.999999
-106.471389770508 -3.957202911377 -10.018529891968 0.000978 0.000978 -0.999999
3.349166870117 1.563169479370 -10.018511772156 0.000978 0.000978 -0.999999
144.648590087891 24.814580917358 -10.018428802490 0.000978 0.000978 -0.999999
-38.429412841797 -3.222824096680 -10.018527984619 0.000978 0.000978 -0.999999
-91.696205139160 10.951089859009 -10.018477439880 0.000978 0.000978 -0.999999
-32.297607421875 3.792156219482 -10.018503189087 0.000978 0.000978 -0.999999
-146.386840820313 -9.159579277039 -10.018548965454 0.000978 0.000978 -0.999999
-97.628158569336 -4.151932716370 -10.018531799316 0.000978 0.000978 -0.999999
-140.500473022461 -16.158582687378 -10.018573760986 0.000978 0.000978 -0.999999
-79.267730712891 -2.939857482910 -10.018527030945 0.000978 0.000978 -0.999999
-94.099861145020 -10.067911148071 -10.018552780151 0.000978 0.000978 -0.999999
43.488372802734 11.486593246460 -10.018476486206 0.000978 0.000978 -0.999999
-141.339691162109 11.157157897949 -10.018476486206 0.000978 0.000978 -0.999999
-80.763427734375 7.633328437805 -10.018488883972 0.000978 0.000978 -0.999999
-95.700721740723 16.593261718750 -10.018458366394 0.000978 0.000978 -0.999999
-58.492462158203 10.885265350342 -10.018477439880 0.000978 0.000978 -0.999999
53.170806884766 18.758930206299 -10.018450737000 0.000978 0.000978 -0.999999
-151.027557373047 -16.045328140259 -10.018573760986 0.000978 0.000978 -0.999999
-5.810043334961 19.467119216919 -10.018447875977 0.000978 0.000978 -0.999999
-79.782188415527 24.094198226929 -10.018431663513 0.000978 0.000978 -0.999999
-7.859878540039 16.725751876831 -10.018457412720 0.000978 0.000978 -0.999999
57.051437377930 9.796199798584 -10.018481254578 0.000978 0.000978 -0.999999
-75.008110046387 -8.921055793762 -10.018548011780 0.000978 0.000978 -0.999999
-90.067741394043 11.530775070190 -10.018476486206 0.000978 0.000978 -0.999999
-111.762863159180 15.298075675964 -10.018462181091 0.000978 0.000978 -0.999999
-160.073974609375 22.062191009521 -10.018439292908 0.000978 0.000978 -0.999999
-165.170989990234 -2.776343822479 -10.018526077271 0.000978 0.000978 -0.999999
-23.503906250000 17.831411361694 -10.018453598022 0.000978 0.000978 -0.999999
-33.293975830078 15.424169540405 -10.018462181091 0.000978 0.000978 -0.999999
-154.428619384766 3.087519168854 -10.018506050110 0.000978 0.000978 -0.999999
-154.005920410156 15.549225807190 -10.018461227417 0.000978 0.000978 -0.999999
-161.773345947266 14.635040283203 -10.018465042114 0.000978 0.000978 -0.999999
