//X Y Z Nx Ny Nz
618
209.348617553711 416.006835937500 20.929704666138 0.000978 0.000978 -0.999999
209.587661743164 440.764312744141 20.929706573486 0.000978 0.000978 -0.999999
209.883361816406 435.073577880859 20.929706573486 0.000978 0.000978 -0.999999
210.124862670898 446.641967773438 20.929706573486 0.000978 0.000978 -0.999999
210.312393188477 486.649627685547 20.929708480835 0.000978 0.000978 -0.999999
211.960983276367 425.860504150391 20.929704666138 0.000978 0.000978 -0.999999
218.778839111328 472.975921630859 20.929708480835 0.000978 0.000978 -0.999999
219.040573120117 486.873077392578 20.929708480835 0.000978 0.000978 -0.999999
214.260375976563 451.440277099609 20.929706573486 0.000978 0.000978 -0.999999
211.974594116211 464.041900634766 20.929706573486 0.000978 0.000978 -0.999999
217.160339355469 477.290710449219 20.929708480835 0.000978 0.000978 -0.999999
213.007949829102 454.687072753906 20.929706573486 0.000978 0.000978 -0.999999
212.185714721680 432.803344726563 20.929706573486 0.000978 0.000978 -0.999999
214.348388671875 487.147369384766 20.929708480835 0.000978 0.000978 -0.999999
211.667449951172 419.688354492188 20.929704666138 0.000978 0.000978 -0.999999
216.134002685547 480.829010009766 20.929708480835 0.000978 0.000978 -0.999999
216.570312500000 493.742889404297 20.929708480835 0.000978 0.000978 -0.999999
212.934097290039 490.221405029297 20.929708480835 0.000978 0.000978 -0.999999
219.386764526367 496.196411132813 20.929710388184 0.000978 0.000978 -0.999999
222.240264892578 500.156250000000 20.929710388184 0.000978 0.000978 -0.999999
218.844741821289 504.362579345703 20.929710388184 0.000978 0.000978 -0.999999
134.769378662109 19.175226211548 20.929687500000 0.000978 0.000978 -0.999999
131.435943603516 23.617412567139 20.929687500000 0.000978 0.000978 -0.999999
133.761810302734 21.346120834351 20.929687500000 0.000978 0.000978 -0.999999
138.559814453125 25.846500396729 20.929687500000 0.000978 0.000978 -0.999999
137.771041870117 31.793613433838 20.929689407349 0.000978 0.000978 -0.999999
135.305297851563 55.318519592285 20.929691314697 0.000978 0.000978 -0.999999
137.790802001953 39.672584533691 20.929689407349 0.000978 0.000978 -0.999999
135.488296508789 37.786396026611 20.929691314697 0.000978 0.000978 -0.999999
134.713684082031 47.373847961426 20.929691314697 0.000978 0.000978 -0.999999
131.306625366211 36.533103942871 20.929689407349 0.000978 0.000978 -0.999999
138.651992797852 77.112525939941 20.929691314697 0.000978 0.000978 -0.999999
137.397811889648 64.936691284180 20.929691314697 0.000978 0.000978 -0.999999
138.817733764648 100.891403198242 20.929693222046 0.000978 0.000978 -0.999999
132.904541015625 74.806724548340 20.929691314697 0.000978 0.000978 -0.999999
140.171356201172 98.702690124512 20.929693222046 0.000978 0.000978 -0.999999
139.985031127930 88.777618408203 20.929691314697 0.000978 0.000978 -0.999999
134.376815795898 83.464553833008 20.929691314697 0.000978 0.000978 -0.999999
140.328491210938 50.533298492432 20.929689407349 0.000978 0.000978 -0.999999
136.271606445313 63.592300415039 20.929691314697 0.000978 0.000978 -0.999999
138.018371582031 68.688377380371 20.929691314697 0.000978 0.000978 -0.999999
139.038757324219 77.111068725586 20.929691314697 0.000978 0.000978 -0.999999
138.804687500000 95.744323730469 20.929693222046 0.000978 0.000978 -0.999999
137.376174926758 112.928756713867 20.929693222046 0.000978 0.000978 -0.999999
137.618270874023 107.290237426758 20.929693222046 0.000978 0.000978 -0.999999
139.243637084961 123.612342834473 20.929693222046 0.000978 0.000978 -0.999999
141.225143432617 30.747482299805 20.929689407349 0.000978 0.000978 -0.999999
145.225936889648 34.444965362549 20.929689407349 0.000978 0.000978 -0.999999
148.789108276367 -2.199514865875 20.929687500000 0.000978 0.000978 -0.999999
148.817169189453 -4.256874084473 20.929687500000 0.000978 0.000978 -0.999999
151.964416503906 -17.192790985107 20.929685592651 0.000978 0.000978 -0.999999
151.560211181641 -31.961132049561 20.929685592651 0.000978 0.000978 -0.999999
149.172302246094 -97.120162963867 20.929683685303 0.000978 0.000978 -0.999999
150.130020141602 -36.561141967773 20.929685592651 0.000978 0.000978 -0.999999
150.765930175781 -83.721626281738 20.929683685303 0.000978 0.000978 -0.999999
154.878387451172 -9.354850769043 20.929685592651 0.000978 0.000978 -0.999999
155.943252563477 -8.804758071899 20.929685592651 0.000978 0.000978 -0.999999
153.291549682617 -13.688671112061 20.929685592651 0.000978 0.000978 -0.999999
149.899429321289 -38.093593597412 20.929685592651 0.000978 0.000978 -0.999999
149.596054077148 -56.047637939453 20.929685592651 0.000978 0.000978 -0.999999
150.410522460938 -18.496742248535 20.929685592651 0.000978 0.000978 -0.999999
156.068206787109 9.840865135193 20.929687500000 0.000978 0.000978 -0.999999
149.593093872070 1.941053390503 20.929687500000 0.000978 0.000978 -0.999999
150.686035156250 2.396272659302 20.929687500000 0.000978 0.000978 -0.999999
156.821121215820 2.411096572876 20.929687500000 0.000978 0.000978 -0.999999
150.557510375977 -44.762886047363 20.929685592651 0.000978 0.000978 -0.999999
152.571640014648 -23.002918243408 20.929685592651 0.000978 0.000978 -0.999999
150.100448608398 -54.745422363281 20.929685592651 0.000978 0.000978 -0.999999
149.150405883789 -41.644195556641 20.929685592651 0.000978 0.000978 -0.999999
155.351852416992 -7.073871612549 20.929687500000 0.000978 0.000978 -0.999999
153.265014648438 -54.477340698242 20.929685592651 0.000978 0.000978 -0.999999
151.756317138672 29.139354705811 20.929689407349 0.000978 0.000978 -0.999999
156.980392456055 21.374517440796 20.929687500000 0.000978 0.000978 -0.999999
152.483856201172 29.197462081909 20.929689407349 0.000978 0.000978 -0.999999
155.077407836914 35.111030578613 20.929689407349 0.000978 0.000978 -0.999999
-118.101715087891 55.865119934082 51.629520416260 -0.101730 0.001071 -0.994811
86.921569824219 45.639343261719 30.495178222656 -0.101730 0.001071 -0.994811
-26.816207885742 46.372230529785 42.219566345215 -0.101730 0.001071 -0.994811
130.955047607422 11.364879608154 25.956090927124 -0.101730 0.001071 -0.994811
-85.073631286621 48.836547851563 48.224899291992 -0.101730 0.001071 -0.994811
35.294769287109 56.852359771729 35.817008972168 -0.101730 0.001071 -0.994811
-23.521926879883 40.289085388184 41.879985809326 -0.101730 0.001071 -0.994811
44.136032104492 42.696144104004 34.905624389648 -0.101730 0.001071 -0.994811
89.940109252930 46.635284423828 30.184017181396 -0.101730 0.001071 -0.994811
-136.366790771484 56.572448730469 53.512329101563 -0.101730 0.001071 -0.994811
-85.180458068848 49.876457214355 48.235908508301 -0.101730 0.001071 -0.994811
-154.047241210938 67.187995910645 55.334877014160 -0.101730 0.001071 -0.994811
54.126022338867 43.612174987793 33.875831604004 -0.101730 0.001071 -0.994811
104.835601806641 9.347339630127 28.648551940918 -0.101730 0.001071 -0.994811
99.910598754883 11.168571472168 29.156232833862 -0.101730 0.001071 -0.994811
34.754234313965 52.965522766113 35.872726440430 -0.101730 0.001071 -0.994811
88.237434387207 40.167686462402 30.359535217285 -0.101730 0.001071 -0.994811
129.617950439453 32.772312164307 26.093921661377 -0.101730 0.001071 -0.994811
-6.685173034668 45.625274658203 40.144409179688 -0.101730 0.001071 -0.994811
-54.210334777832 44.490993499756 45.043426513672 -0.101730 0.001071 -0.994811
-30.903358459473 44.238124847412 42.640884399414 -0.101730 0.001071 -0.994811
-141.751434326172 58.487491607666 54.067394256592 -0.101730 0.001071 -0.994811
-8.480556488037 55.466720581055 40.329483032227 -0.101730 0.001071 -0.994811
4.466323852539 42.690155029297 38.994880676270 -0.101730 0.001071 -0.994811
18.953117370605 53.071556091309 37.501544952393 -0.101730 0.001071 -0.994811
38.800483703613 50.192260742188 35.455627441406 -0.101730 0.001071 -0.994811
-76.323501586914 45.384887695313 47.322906494141 -0.101730 0.001071 -0.994811
24.577774047852 36.159042358398 36.921737670898 -0.101730 0.001071 -0.994811
-70.294059753418 59.492053985596 46.701381683350 -0.101730 0.001071 -0.994811
-0.396759033203 53.269340515137 39.496181488037 -0.101730 0.001071 -0.994811
102.425865173340 47.444164276123 28.896957397461 -0.101730 0.001071 -0.994811
-87.275650024414 58.602638244629 48.451885223389 -0.101730 0.001071 -0.994811
-55.164962768555 42.153297424316 45.141830444336 -0.101730 0.001071 -0.994811
-51.920539855957 46.700706481934 44.807388305664 -0.101730 0.001071 -0.994811
36.656860351563 46.643363952637 35.676597595215 -0.101730 0.001071 -0.994811
-20.285575866699 54.713283538818 41.546375274658 -0.101730 0.001071 -0.994811
80.946334838867 27.677619934082 31.111120223999 -0.101730 0.001071 -0.994811
115.921188354492 48.978096008301 27.505823135376 -0.101730 0.001071 -0.994811
-93.849502563477 48.934204101563 49.129535675049 -0.101730 0.001071 -0.994811
74.654495239258 18.301559448242 31.759696960449 -0.101730 0.001071 -0.994811
80.928955078125 38.874916076660 31.112913131714 -0.101730 0.001071 -0.994811
116.124038696289 38.306587219238 27.484912872314 -0.101730 0.001071 -0.994811
129.385223388672 10.271373748779 26.117910385132 -0.101730 0.001071 -0.994811
-86.067359924316 55.957286834717 48.327331542969 -0.101730 0.001071 -0.994811
21.338562011719 26.604751586914 37.255645751953 -0.101730 0.001071 -0.994811
-40.057178497314 55.145805358887 43.584484100342 -0.101730 0.001071 -0.994811
58.998237609863 38.352493286133 33.373588562012 -0.101730 0.001071 -0.994811
17.036911010742 46.404663085938 37.699073791504 -0.101730 0.001071 -0.994811
-45.499202728271 54.263366699219 44.145462036133 -0.101730 0.001071 -0.994811
52.892448425293 35.194557189941 34.002990722656 -0.101730 0.001071 -0.994811
-87.361793518066 50.358386993408 48.460765838623 -0.101730 0.001071 -0.994811
-80.208900451660 46.667385101318 47.723426818848 -0.101730 0.001071 -0.994811
-39.580795288086 52.644077301025 43.535377502441 -0.101730 0.001071 -0.994811
-97.974212646484 55.745170593262 49.554725646973 -0.101730 0.001071 -0.994811
7.451541900635 56.275348663330 38.687156677246 -0.101730 0.001071 -0.994811
-0.172008037567 59.025062561035 39.473014831543 -0.101730 0.001071 -0.994811
-1.949310302734 43.202804565430 39.656223297119 -0.101730 0.001071 -0.994811
130.046905517578 37.970005035400 26.049705505371 -0.101730 0.001071 -0.994811
-1.832244873047 35.634265899658 39.644157409668 -0.101730 0.001071 -0.994811
-18.130752563477 41.433273315430 41.324245452881 -0.101730 0.001071 -0.994811
31.980278015137 50.965507507324 36.158672332764 -0.101730 0.001071 -0.994811
-38.637710571289 37.349422454834 43.438156127930 -0.101730 0.001071 -0.994811
108.149276733398 10.678989410400 28.306966781616 -0.101730 0.001071 -0.994811
102.396202087402 27.126968383789 28.900011062622 -0.101730 0.001071 -0.994811
-171.173919677734 68.311721801758 57.100341796875 -0.101730 0.001071 -0.994811
-88.743667602539 50.837490081787 48.603210449219 -0.101730 0.001071 -0.994811
67.570205688477 26.232414245605 32.489967346191 -0.101730 0.001071 -0.994811
74.628883361816 50.608692169189 31.762338638306 -0.101730 0.001071 -0.994811
48.009746551514 57.053409576416 34.506309509277 -0.101730 0.001071 -0.994811
129.166961669922 14.915264129639 26.140411376953 -0.101730 0.001071 -0.994811
-20.525047302246 44.059753417969 41.571056365967 -0.101730 0.001071 -0.994811
92.976860046387 48.050529479980 29.870983123779 -0.101730 0.001071 -0.994811
17.818511962891 30.705989837646 37.618499755859 -0.101730 0.001071 -0.994811
-15.861999511719 37.596454620361 41.090377807617 -0.101730 0.001071 -0.994811
49.285739898682 56.139209747314 34.374778747559 -0.101730 0.001071 -0.994811
-43.126884460449 46.979637145996 43.900917053223 -0.101730 0.001071 -0.994811
105.410263061523 53.080589294434 28.589317321777 -0.101730 0.001071 -0.994811
101.417648315430 14.148044586182 29.000883102417 -0.101730 0.001071 -0.994811
-117.541160583496 56.628139495850 51.571735382080 -0.101730 0.001071 -0.994811
48.757534027100 49.386867523193 34.429229736328 -0.101730 0.001071 -0.994811
72.750465393066 54.745174407959 31.955976486206 -0.101730 0.001071 -0.994811
47.137908935547 27.264102935791 34.596183776855 -0.101730 0.001071 -0.994811
14.221603393555 36.767105102539 37.989280700684 -0.101730 0.001071 -0.994811
96.858367919922 41.916351318359 29.470867156982 -0.101730 0.001071 -0.994811
99.721405029297 33.303390502930 29.175739288330 -0.101730 0.001071 -0.994811
123.359329223633 26.896614074707 26.739078521729 -0.101730 0.001071 -0.994811
114.525489807129 42.046443939209 27.649692535400 -0.101730 0.001071 -0.994811
88.099975585938 26.952362060547 30.373703002930 -0.101730 0.001071 -0.994811
43.440032958984 56.758358001709 34.977375030518 -0.101730 0.001071 -0.994811
-126.703735351563 58.618026733398 52.516239166260 -0.101730 0.001071 -0.994811
8.323776245117 58.960704803467 38.597248077393 -0.101730 0.001071 -0.994811
121.778312683105 16.843608856201 26.902051925659 -0.101730 0.001071 -0.994811
-143.367095947266 62.433597564697 54.233940124512 -0.101730 0.001071 -0.994811
94.621459960938 26.636234283447 29.701450347900 -0.101730 0.001071 -0.994811
-60.757629394531 43.509452819824 45.718338012695 -0.101730 0.001071 -0.994811
-43.279350280762 52.331413269043 43.916629791260 -0.101730 0.001071 -0.994811
-89.522544860840 56.178638458252 48.683502197266 -0.101730 0.001071 -0.994811
81.225418090820 15.798954010010 31.082349777222 -0.101730 0.001071 -0.994811
73.706970214844 20.353569030762 31.857372283936 -0.101730 0.001071 -0.994811
21.227294921875 50.565044403076 37.267112731934 -0.101730 0.001071 -0.994811
-100.419189453125 61.820491790771 49.806758880615 -0.101730 0.001071 -0.994811
-43.974868774414 40.795822143555 43.988327026367 -0.101730 0.001071 -0.994811
104.697860717773 13.773674011230 28.662748336792 -0.101730 0.001071 -0.994811
2.368515014648 31.925819396973 39.211128234863 -0.101730 0.001071 -0.994811
15.746582031250 32.297760009766 37.832084655762 -0.101730 0.001071 -0.994811
126.179031372070 41.108108520508 26.448417663574 -0.101730 0.001071 -0.994811
11.731742858887 41.388584136963 38.245944976807 -0.101730 0.001071 -0.994811
-63.068794250488 56.543262481689 45.956577301025 -0.101730 0.001071 -0.994811
-42.661857604980 59.737270355225 43.852981567383 -0.101730 0.001071 -0.994811
88.953750610352 22.226871490479 30.285696029663 -0.101730 0.001071 -0.994811
129.532501220703 27.191181182861 26.102731704712 -0.101730 0.001071 -0.994811
-24.541595458984 36.057014465332 41.985092163086 -0.101730 0.001071 -0.994811
14.093032836914 43.937637329102 38.002532958984 -0.101730 0.001071 -0.994811
21.310600280762 40.964057922363 37.258529663086 -0.101730 0.001071 -0.994811
31.496925354004 36.936401367188 36.208496093750 -0.101730 0.001071 -0.994811
-41.851844787598 46.254463195801 43.769481658936 -0.101730 0.001071 -0.994811
31.687011718750 33.061492919922 36.188903808594 -0.101730 0.001071 -0.994811
114.397064208984 43.441246032715 27.662933349609 -0.101730 0.001071 -0.994811
75.564804077148 34.158256530762 31.665863037109 -0.101730 0.001071 -0.994811
97.220108032227 15.013339996338 29.433576583862 -0.101730 0.001071 -0.994811
87.950622558594 31.060676574707 30.389099121094 -0.101730 0.001071 -0.994811
-91.901855468750 48.031932830811 48.928768157959 -0.101730 0.001071 -0.994811
-31.835906982422 42.147743225098 42.737010955811 -0.101730 0.001071 -0.994811
-36.409149169922 41.261199951172 43.208435058594 -0.101730 0.001071 -0.994811
75.693832397461 41.585807800293 31.652563095093 -0.101730 0.001071 -0.994811
57.038726806641 27.899646759033 33.575580596924 -0.101730 0.001071 -0.994811
71.934310913086 27.635322570801 32.040100097656 -0.101730 0.001071 -0.994811
-15.845584869385 53.630569458008 41.088687896729 -0.101730 0.001071 -0.994811
18.067100524902 52.326225280762 37.592880249023 -0.101730 0.001071 -0.994811
88.153671264648 21.925323486328 30.368167877197 -0.101730 0.001071 -0.994811
-58.529155731201 58.563613891602 45.488620758057 -0.101730 0.001071 -0.994811
29.947862625122 54.583705902100 36.368175506592 -0.101730 0.001071 -0.994811
-57.749816894531 42.295337677002 45.408287048340 -0.101730 0.001071 -0.994811
61.293930053711 41.959838867188 33.136943817139 -0.101730 0.001071 -0.994811
-122.179244995117 63.240966796875 52.049842834473 -0.101730 0.001071 -0.994811
-49.523170471191 46.093769073486 44.560260772705 -0.101730 0.001071 -0.994811
76.945785522461 40.938274383545 31.523506164551 -0.101730 0.001071 -0.994811
-75.068420410156 54.692268371582 47.193534851074 -0.101730 0.001071 -0.994811
104.356506347656 13.496952056885 28.697937011719 -0.101730 0.001071 -0.994811
39.910964965820 42.897045135498 35.341156005859 -0.101730 0.001071 -0.994811
110.854957580566 36.606300354004 28.028060913086 -0.101730 0.001071 -0.994811
66.408050537109 44.231071472168 32.609767913818 -0.101730 0.001071 -0.994811
116.413879394531 44.933986663818 27.455030441284 -0.101730 0.001071 -0.994811
-45.690963745117 51.223766326904 44.165225982666 -0.101730 0.001071 -0.994811
102.562377929688 39.351482391357 28.882883071899 -0.101730 0.001071 -0.994811
109.595596313477 18.420562744141 28.157878875732 -0.101730 0.001071 -0.994811
68.138565063477 51.115512847900 32.431381225586 -0.101730 0.001071 -0.994811
94.848167419434 52.049205780029 29.678085327148 -0.101730 0.001071 -0.994811
-0.602828979492 47.356109619141 39.517425537109 -0.101730 0.001071 -0.994811
-36.171157836914 56.226226806641 43.183902740479 -0.101730 0.001071 -0.994811
61.235054016113 33.236427307129 33.143013000488 -0.101730 0.001071 -0.994811
-71.272048950195 57.752948760986 46.802196502686 -0.101730 0.001071 -0.994811
111.088531494141 10.644111633301 28.003980636597 -0.101730 0.001071 -0.994811
112.730407714844 14.409202575684 27.834735870361 -0.101730 0.001071 -0.994811
-71.069320678711 58.621189117432 46.781295776367 -0.101730 0.001071 -0.994811
3.119044303894 58.633544921875 39.133762359619 -0.101730 0.001071 -0.994811
46.954086303711 46.464385986328 34.615131378174 -0.101730 0.001071 -0.994811
10.414901733398 43.944118499756 38.381683349609 -0.101730 0.001071 -0.994811
75.307411193848 40.478645324707 31.692394256592 -0.101730 0.001071 -0.994811
-7.155980110168 58.611515045166 40.192935943604 -0.101730 0.001071 -0.994811
60.168098449707 46.903125762939 33.252994537354 -0.101730 0.001071 -0.994811
31.334175109863 51.634407043457 36.225273132324 -0.101730 0.001071 -0.994811
69.568939208984 48.550239562988 32.283935546875 -0.101730 0.001071 -0.994811
-152.972137451172 64.252677917480 55.224056243896 -0.101730 0.001071 -0.994811
129.018249511719 42.879531860352 26.155738830566 -0.101730 0.001071 -0.994811
1.478607177734 36.930789947510 39.302864074707 -0.101730 0.001071 -0.994811
-13.071487426758 55.413898468018 40.802726745605 -0.101730 0.001071 -0.994811
-62.793640136719 59.762287139893 45.928215026855 -0.101730 0.001071 -0.994811
35.818481445313 37.723289489746 35.763019561768 -0.101730 0.001071 -0.994811
39.005142211914 29.649452209473 35.434524536133 -0.101730 0.001071 -0.994811
76.466766357422 14.323501586914 31.572887420654 -0.101730 0.001071 -0.994811
41.842193603516 30.998802185059 35.142074584961 -0.101730 0.001071 -0.994811
82.052238464355 43.038551330566 30.997123718262 -0.101730 0.001071 -0.994811
86.001289367676 30.358383178711 30.590042114258 -0.101730 0.001071 -0.994811
92.597732543945 22.683525085449 29.910066604614 -0.101730 0.001071 -0.994811
46.074401855469 30.116256713867 34.705810546875 -0.101730 0.001071 -0.994811
-1.511702060699 59.402454376221 39.611114501953 -0.101730 0.001071 -0.994811
98.534187316895 26.422328948975 29.298120498657 -0.101730 0.001071 -0.994811
3.978729248047 40.715225219727 39.045143127441 -0.101730 0.001071 -0.994811
100.288017272949 25.314449310303 29.117326736450 -0.101730 0.001071 -0.994811
-40.204109191895 49.059631347656 43.599624633789 -0.101730 0.001071 -0.994811
-6.295776367188 41.214187622070 40.104263305664 -0.101730 0.001071 -0.994811
-106.639213562012 51.960433959961 50.447929382324 -0.101730 0.001071 -0.994811
94.053436279297 39.812042236328 29.760009765625 -0.101730 0.001071 -0.994811
-45.815540313721 56.619209289551 44.178066253662 -0.101730 0.001071 -0.994811
27.892456054688 28.974735260010 36.580055236816 -0.101730 0.001071 -0.994811
-1.715103149414 49.035556793213 39.632080078125 -0.101730 0.001071 -0.994811
-100.701530456543 60.834400177002 49.835861206055 -0.101730 0.001071 -0.994811
-34.961296081543 46.356620788574 43.059185028076 -0.101730 0.001071 -0.994811
93.661643981934 43.304512023926 29.800395965576 -0.101730 0.001071 -0.994811
48.541244506836 22.884391784668 34.451522827148 -0.101730 0.001071 -0.994811
-82.919303894043 47.370491027832 48.002822875977 -0.101730 0.001071 -0.994811
1.207412719727 31.575824737549 39.330818176270 -0.101730 0.001071 -0.994811
-77.388320922852 58.510299682617 47.432674407959 -0.101730 0.001071 -0.994811
8.323616027832 45.005203247070 38.597263336182 -0.101730 0.001071 -0.994811
-102.423057556152 49.815132141113 50.013320922852 -0.101730 0.001071 -0.994811
103.071136474609 22.386051177979 28.830436706543 -0.101730 0.001071 -0.994811
-67.538146972656 42.982330322266 46.417293548584 -0.101730 0.001071 -0.994811
120.235778808594 8.224182128906 27.061058044434 -0.101730 0.001071 -0.994811
128.076507568359 40.127021789551 26.252817153931 -0.101730 0.001071 -0.994811
80.934974670410 40.422580718994 31.112293243408 -0.101730 0.001071 -0.994811
112.913238525391 51.144412994385 27.815889358521 -0.101730 0.001071 -0.994811
-34.747573852539 47.205062866211 43.037151336670 -0.101730 0.001071 -0.994811
-75.226745605469 50.970863342285 47.209854125977 -0.101730 0.001071 -0.994811
-10.069992065430 52.558486938477 40.493324279785 -0.101730 0.001071 -0.994811
99.659927368164 53.057250976563 29.182077407837 -0.101730 0.001071 -0.994811
-131.327423095703 63.095642089844 52.992858886719 -0.101730 0.001071 -0.994811
-95.468048095703 54.264564514160 49.296379089355 -0.101730 0.001071 -0.994811
108.308227539063 42.311462402344 28.290584564209 -0.101730 0.001071 -0.994811
38.998146057129 38.573272705078 35.435249328613 -0.101730 0.001071 -0.994811
-24.530525207520 42.541152954102 41.983951568604 -0.101730 0.001071 -0.994811
96.270141601563 24.874805450439 29.531501770020 -0.101730 0.001071 -0.994811
-16.796953201294 60.586605072021 41.186756134033 -0.101730 0.001071 -0.994811
-92.617362976074 52.115875244141 49.002525329590 -0.101730 0.001071 -0.994811
40.498634338379 39.282203674316 35.280574798584 -0.101730 0.001071 -0.994811
33.973747253418 36.038299560547 35.953178405762 -0.101730 0.001071 -0.994811
79.390403747559 38.315101623535 31.271511077881 -0.101730 0.001071 -0.994811
82.505081176758 27.189174652100 30.950441360474 -0.101730 0.001071 -0.994811
79.886856079102 24.403980255127 31.220331192017 -0.101730 0.001071 -0.994811
126.527236938477 33.337577819824 26.412521362305 -0.101730 0.001071 -0.994811
113.589263916016 47.443004608154 27.746198654175 -0.101730 0.001071 -0.994811
13.133193969727 33.990440368652 38.101478576660 -0.101730 0.001071 -0.994811
-37.780899047852 46.871528625488 43.349838256836 -0.101730 0.001071 -0.994811
56.924835205078 37.838615417480 33.587318420410 -0.101730 0.001071 -0.994811
-98.537338256836 58.692787170410 49.612770080566 -0.101730 0.001071 -0.994811
-103.647010803223 63.037727355957 50.139492034912 -0.101730 0.001071 -0.994811
130.076049804688 37.862197875977 26.046701431274 -0.101730 0.001071 -0.994811
128.220626831055 11.590209960938 26.237960815430 -0.101730 0.001071 -0.994811
17.192937850952 54.765094757080 37.682991027832 -0.101730 0.001071 -0.994811
-70.852203369141 62.414402008057 46.758914947510 -0.101730 0.001071 -0.994811
43.255012512207 41.400897979736 34.996444702148 -0.101730 0.001071 -0.994811
-122.189788818359 57.366371154785 52.050930023193 -0.101730 0.001071 -0.994811
38.442092895508 16.734664916992 35.492568969727 -0.101730 0.001071 -0.994811
1.389022827148 14.143020629883 39.312095642090 -0.101730 0.001071 -0.994811
-11.353851318359 15.181072235107 40.625663757324 -0.101730 0.001071 -0.994811
-46.725204467773 38.239654541016 44.271842956543 -0.101730 0.001071 -0.994811
-186.220825195313 22.049827575684 58.651412963867 -0.101730 0.001071 -0.994811
-21.763488769531 28.851425170898 41.698715209961 -0.101730 0.001071 -0.994811
-93.379524230957 22.062017440796 49.081085205078 -0.101730 0.001071 -0.994811
-147.676483154297 51.901195526123 54.678165435791 -0.101730 0.001071 -0.994811
-94.033073425293 41.252414703369 49.148460388184 -0.101730 0.001071 -0.994811
-47.911727905273 16.042341232300 44.394145965576 -0.101730 0.001071 -0.994811
77.007736206055 12.393725395203 31.517118453979 -0.101730 0.001071 -0.994811
-114.309967041016 42.342220306396 51.238655090332 -0.101730 0.001071 -0.994811
-112.197746276855 37.311744689941 51.020919799805 -0.101730 0.001071 -0.994811
-185.076553344727 32.693271636963 58.533458709717 -0.101730 0.001071 -0.994811
-104.210708618164 15.962944030762 50.197593688965 -0.101730 0.001071 -0.994811
-159.628417968750 33.252525329590 55.910198211670 -0.101730 0.001071 -0.994811
-40.386291503906 33.647201538086 43.618408203125 -0.101730 0.001071 -0.994811
5.940628051758 16.453910827637 38.842903137207 -0.101730 0.001071 -0.994811
96.686447143555 9.270648002625 29.488586425781 -0.101730 0.001071 -0.994811
-75.292617797852 32.645942687988 47.216640472412 -0.101730 0.001071 -0.994811
-166.783294677734 54.882865905762 56.647747039795 -0.101730 0.001071 -0.994811
-12.131225585938 27.775144577026 40.705799102783 -0.101730 0.001071 -0.994811
-110.948425292969 34.399566650391 50.892135620117 -0.101730 0.001071 -0.994811
-125.337959289551 45.834213256836 52.375450134277 -0.101730 0.001071 -0.994811
-141.668899536133 32.152259826660 54.058883666992 -0.101730 0.001071 -0.994811
-198.881225585938 56.439067840576 59.956481933594 -0.101730 0.001071 -0.994811
-128.351745605469 18.721441268921 52.686115264893 -0.101730 0.001071 -0.994811
10.283386230469 15.932579040527 38.395240783691 -0.101730 0.001071 -0.994811
-168.987792968750 58.073120117188 56.874992370605 -0.101730 0.001071 -0.994811
-134.607528686523 21.022411346436 53.330978393555 -0.101730 0.001071 -0.994811
-130.423767089844 21.212846755981 52.899703979492 -0.101730 0.001071 -0.994811
-198.016799926758 41.573673248291 59.867370605469 -0.101730 0.001071 -0.994811
-128.585891723633 19.104627609253 52.710250854492 -0.101730 0.001071 -0.994811
-163.447921752930 61.307285308838 56.303924560547 -0.101730 0.001071 -0.994811
84.371566772461 5.717497825623 30.758035659790 -0.101730 0.001071 -0.994811
53.099594116211 17.217252731323 33.981636047363 -0.101730 0.001071 -0.994811
18.694549560547 23.067787170410 37.528198242188 -0.101730 0.001071 -0.994811
-114.512893676758 25.438352584839 51.259571075439 -0.101730 0.001071 -0.994811
-182.486984252930 54.450046539307 58.266521453857 -0.101730 0.001071 -0.994811
-149.790725708008 54.508350372314 54.896106719971 -0.101730 0.001071 -0.994811
-204.662490844727 44.525302886963 60.552429199219 -0.101730 0.001071 -0.994811
-22.650344848633 29.388134002686 41.790138244629 -0.101730 0.001071 -0.994811
-116.471916198730 28.922452926636 51.461509704590 -0.101730 0.001071 -0.994811
-122.567893981934 35.922409057617 52.089900970459 -0.101730 0.001071 -0.994811
-177.266906738281 21.877735137939 57.728420257568 -0.101730 0.001071 -0.994811
-87.394348144531 44.571163177490 48.464122772217 -0.101730 0.001071 -0.994811
46.478317260742 14.277882575989 34.664173126221 -0.101730 0.001071 -0.994811
-66.231781005859 21.895532608032 46.282627105713 -0.101730 0.001071 -0.994811
-186.212371826172 47.470565795898 58.650543212891 -0.101730 0.001071 -0.994811
-11.478500366211 23.780467987061 40.638511657715 -0.101730 0.001071 -0.994811
-166.962646484375 27.379098892212 56.666229248047 -0.101730 0.001071 -0.994811
28.957656860352 20.390235900879 36.470249176025 -0.101730 0.001071 -0.994811
-18.665267944336 29.075956344604 41.379344940186 -0.101730 0.001071 -0.994811
-169.248138427734 49.872970581055 56.901824951172 -0.101730 0.001071 -0.994811
-126.876632690430 53.809574127197 52.534061431885 -0.101730 0.001071 -0.994811
-74.866836547852 18.949939727783 47.172752380371 -0.101730 0.001071 -0.994811
-111.657844543457 21.902196884155 50.965263366699 -0.101730 0.001071 -0.994811
-206.847503662109 46.696201324463 60.777667999268 -0.101730 0.001071 -0.994811
51.407302856445 12.576958656311 34.156078338623 -0.101730 0.001071 -0.994811
-151.712829589844 22.674047470093 55.094238281250 -0.101730 0.001071 -0.994811
-31.045745849609 27.708934783936 42.655555725098 -0.101730 0.001071 -0.994811
-84.371315002441 41.691024780273 48.152500152588 -0.101730 0.001071 -0.994811
46.769668579102 8.933013916016 34.634140014648 -0.101730 0.001071 -0.994811
-61.065856933594 41.198619842529 45.750114440918 -0.101730 0.001071 -0.994811
-199.693298339844 41.085796356201 60.040191650391 -0.101730 0.001071 -0.994811
-179.848968505859 56.600063323975 57.994586944580 -0.101730 0.001071 -0.994811
-146.106079101563 44.530128479004 54.516281127930 -0.101730 0.001071 -0.994811
-165.113189697266 49.935214996338 56.475585937500 -0.101730 0.001071 -0.994811
3.425231933594 16.309457778931 39.102195739746 -0.101730 0.001071 -0.994811
-154.115661621094 25.847213745117 55.341926574707 -0.101730 0.001071 -0.994811
12.535354614258 25.438467025757 38.163101196289 -0.101730 0.001071 -0.994811
-5.164459228516 28.787485122681 39.987648010254 -0.101730 0.001071 -0.994811
-191.310379028320 40.383323669434 59.176055908203 -0.101730 0.001071 -0.994811
-110.507682800293 38.125640869141 50.846702575684 -0.101730 0.001071 -0.994811
-180.070114135742 59.202816009521 58.017383575439 -0.101730 0.001071 -0.994811
-186.027862548828 23.111991882324 58.631519317627 -0.101730 0.001071 -0.994811
-191.495193481445 59.006084442139 59.195110321045 -0.101730 0.001071 -0.994811
-78.237503051758 27.973911285400 47.520210266113 -0.101730 0.001071 -0.994811
-102.623428344727 25.064399719238 50.033973693848 -0.101730 0.001071 -0.994811
-200.939224243164 21.712266921997 60.168624877930 -0.101730 0.001071 -0.994811
-193.304916381836 25.862283706665 59.381660461426 -0.101730 0.001071 -0.994811
-186.062759399414 27.594318389893 58.635120391846 -0.101730 0.001071 -0.994811
-182.746566772461 28.041790008545 58.293277740479 -0.101730 0.001071 -0.994811
-145.834152221680 19.796485900879 54.488246917725 -0.101730 0.001071 -0.994811
-187.207931518555 61.482311248779 58.753170013428 -0.101730 0.001071 -0.994811
-167.513549804688 59.270446777344 56.723022460938 -0.101730 0.001071 -0.994811
8.272125244141 22.682462692261 38.602569580078 -0.101730 0.001071 -0.994811
-120.212364196777 44.047134399414 51.847091674805 -0.101730 0.001071 -0.994811
-143.957183837891 43.166442871094 54.294769287109 -0.101730 0.001071 -0.994811
-147.330200195313 18.325626373291 54.642463684082 -0.101730 0.001071 -0.994811
-204.582275390625 32.180183410645 60.544158935547 -0.101730 0.001071 -0.994811
-85.347503662109 45.386009216309 48.253128051758 -0.101730 0.001071 -0.994811
-75.895706176758 15.783353805542 47.278808593750 -0.101730 0.001071 -0.994811
-43.210968017578 27.155796051025 43.909580230713 -0.101730 0.001071 -0.994811
-113.747749328613 41.443622589111 51.180702209473 -0.101730 0.001071 -0.994811
-66.641647338867 41.887565612793 46.324882507324 -0.101730 0.001071 -0.994811
-111.339477539063 30.597583770752 50.932445526123 -0.101730 0.001071 -0.994811
-67.594573974609 32.558799743652 46.423107147217 -0.101730 0.001071 -0.994811
-9.867080688477 15.270697593689 40.472404479980 -0.101730 0.001071 -0.994811
-172.542541503906 50.008621215820 57.241424560547 -0.101730 0.001071 -0.994811
-6.945098876953 12.676828384399 40.171199798584 -0.101730 0.001071 -0.994811
-204.258636474609 68.003799438477 60.510799407959 -0.101730 0.001071 -0.994811
-30.504241943359 27.421298980713 42.599739074707 -0.101730 0.001071 -0.994811
-151.526824951172 45.088989257813 55.075069427490 -0.101730 0.001071 -0.994811
-172.909561157227 55.337093353271 57.279254913330 -0.101730 0.001071 -0.994811
-57.254287719727 24.637491226196 45.357204437256 -0.101730 0.001071 -0.994811
-107.624099731445 27.228973388672 50.549453735352 -0.101730 0.001071 -0.994811
-3.282806396484 23.492422103882 39.793678283691 -0.101730 0.001071 -0.994811
-6.119079589844 11.322768211365 40.086051940918 -0.101730 0.001071 -0.994811
-28.129760742188 28.428100585938 42.354969024658 -0.101730 0.001071 -0.994811
-26.189117431641 31.861072540283 42.154922485352 -0.101730 0.001071 -0.994811
55.807235717773 7.981477737427 33.702522277832 -0.101730 0.001071 -0.994811
-192.661636352539 55.998512268066 59.315353393555 -0.101730 0.001071 -0.994811
74.755966186523 14.008110046387 31.749237060547 -0.101730 0.001071 -0.994811
-190.337890625000 62.997344970703 59.075813293457 -0.101730 0.001071 -0.994811
-175.236785888672 49.469257354736 57.519153594971 -0.101730 0.001071 -0.994811
-102.027061462402 32.215721130371 49.972496032715 -0.101730 0.001071 -0.994811
-125.759223937988 28.887836456299 52.418872833252 -0.101730 0.001071 -0.994811
-123.753120422363 20.894754409790 52.212078094482 -0.101730 0.001071 -0.994811
-201.773193359375 56.220726013184 60.254596710205 -0.101730 0.001071 -0.994811
-149.914688110352 47.116294860840 54.908882141113 -0.101730 0.001071 -0.994811
-196.618927001953 48.653263092041 59.723278045654 -0.101730 0.001071 -0.994811
-18.300979614258 15.958131790161 41.341793060303 -0.101730 0.001071 -0.994811
-124.136329650879 53.590351104736 52.251583099365 -0.101730 0.001071 -0.994811
-23.198852539063 16.322509765625 41.846679687500 -0.101730 0.001071 -0.994811
-78.694137573242 33.243572235107 47.567279815674 -0.101730 0.001071 -0.994811
84.856948852539 10.010803222656 30.708003997803 -0.101730 0.001071 -0.994811
-113.093444824219 20.898044586182 51.113250732422 -0.101730 0.001071 -0.994811
-5.866104125977 25.804115295410 40.059974670410 -0.101730 0.001071 -0.994811
-193.754425048828 37.830135345459 59.427997589111 -0.101730 0.001071 -0.994811
-70.846450805664 15.632045745850 46.758316040039 -0.101730 0.001071 -0.994811
43.665054321289 11.005491256714 34.954170227051 -0.101730 0.001071 -0.994811
-4.193374633789 13.874548912048 39.887542724609 -0.101730 0.001071 -0.994811
-194.082763671875 66.467048645020 59.461845397949 -0.101730 0.001071 -0.994811
-192.715942382813 49.426307678223 59.320949554443 -0.101730 0.001071 -0.994811
-61.276733398438 14.563954353333 45.771846771240 -0.101730 0.001071 -0.994811
73.718124389648 11.282210350037 31.856220245361 -0.101730 0.001071 -0.994811
-132.394256591797 35.205551147461 53.102828979492 -0.101730 0.001071 -0.994811
-138.518951416016 38.874023437500 53.734176635742 -0.101730 0.001071 -0.994811
-141.402465820313 31.355895996094 54.031417846680 -0.101730 0.001071 -0.994811
-143.483810424805 25.091045379639 54.245967864990 -0.101730 0.001071 -0.994811
-40.774047851563 29.916913986206 43.658374786377 -0.101730 0.001071 -0.994811
-166.714508056641 29.295265197754 56.640647888184 -0.101730 0.001071 -0.994811
-23.522918701172 19.816204071045 41.880084991455 -0.101730 0.001071 -0.994811
-32.871719360352 12.048960685730 42.843780517578 -0.101730 0.001071 -0.994811
-99.733840942383 35.158298492432 49.736106872559 -0.101730 0.001071 -0.994811
-148.422363281250 38.271556854248 54.755046844482 -0.101730 0.001071 -0.994811
12.261871337891 24.398578643799 38.191291809082 -0.101730 0.001071 -0.994811
-176.657287597656 62.495201110840 57.665580749512 -0.101730 0.001071 -0.994811
18.400817871094 22.013433456421 37.558471679688 -0.101730 0.001071 -0.994811
-116.906814575195 46.172546386719 51.506347656250 -0.101730 0.001071 -0.994811
-22.435653686523 24.112672805786 41.768005371094 -0.101730 0.001071 -0.994811
-59.427658081055 22.800806045532 45.581237792969 -0.101730 0.001071 -0.994811
-167.066955566406 31.374246597290 56.676979064941 -0.101730 0.001071 -0.994811
-195.541625976563 31.125879287720 59.612224578857 -0.101730 0.001071 -0.994811
-22.493164062500 13.684346199036 41.773933410645 -0.101730 0.001071 -0.994811
-106.957435607910 30.427360534668 50.480735778809 -0.101730 0.001071 -0.994811
-126.634941101074 30.822509765625 52.509143829346 -0.101730 0.001071 -0.994811
-200.044479370117 43.421226501465 60.076389312744 -0.101730 0.001071 -0.994811
-127.058280944824 51.900672912598 52.552787780762 -0.101730 0.001071 -0.994811
-189.263214111328 40.908344268799 58.965030670166 -0.101730 0.001071 -0.994811
-65.588821411133 33.624042510986 46.216346740723 -0.101730 0.001071 -0.994811
-113.400108337402 39.241394042969 51.144859313965 -0.101730 0.001071 -0.994811
-4.916625976563 22.762845993042 39.962097167969 -0.101730 0.001071 -0.994811
-185.651870727539 35.047882080078 58.592761993408 -0.101730 0.001071 -0.994811
-145.784240722656 40.995292663574 54.483100891113 -0.101730 0.001071 -0.994811
-110.119102478027 18.324653625488 50.806648254395 -0.101730 0.001071 -0.994811
-135.958862304688 43.908103942871 53.470279693604 -0.101730 0.001071 -0.994811
-140.712799072266 44.292774200439 53.960327148438 -0.101730 0.001071 -0.994811
6.057327270508 22.180614471436 38.830875396729 -0.101730 0.001071 -0.994811
-118.699020385742 28.348455429077 51.691085815430 -0.101730 0.001071 -0.994811
-190.338745117188 61.244777679443 59.075901031494 -0.101730 0.001071 -0.994811
-128.223175048828 16.805122375488 52.672863006592 -0.101730 0.001071 -0.994811
-135.121429443359 56.111682891846 53.383956909180 -0.101730 0.001071 -0.994811
-163.866577148438 57.588985443115 56.347080230713 -0.101730 0.001071 -0.994811
-38.177261352539 26.711772918701 43.390693664551 -0.101730 0.001071 -0.994811
30.836410522461 13.649937629700 36.276580810547 -0.101730 0.001071 -0.994811
46.692886352539 14.689425468445 34.642051696777 -0.101730 0.001071 -0.994811
-53.159713745117 32.954269409180 44.935123443604 -0.101730 0.001071 -0.994811
32.609176635742 10.998702049255 36.093841552734 -0.101730 0.001071 -0.994811
29.392120361328 9.504413604736 36.425460815430 -0.101730 0.001071 -0.994811
-53.446136474609 35.492813110352 44.964649200439 -0.101730 0.001071 -0.994811
16.134658813477 24.320152282715 37.792076110840 -0.101730 0.001071 -0.994811
-0.351730346680 10.603375434875 39.491539001465 -0.101730 0.001071 -0.994811
-95.466873168945 44.406406402588 49.296260833740 -0.101730 0.001071 -0.994811
-195.663848876953 59.077514648438 59.624828338623 -0.101730 0.001071 -0.994811
87.138412475586 6.587891578674 30.472824096680 -0.101730 0.001071 -0.994811
-157.911102294922 51.732688903809 55.733177185059 -0.101730 0.001071 -0.994811
-147.894836425781 53.847278594971 54.700672149658 -0.101730 0.001071 -0.994811
-139.379180908203 33.173988342285 53.822853088379 -0.101730 0.001071 -0.994811
-11.541885375977 29.073936462402 40.645046234131 -0.101730 0.001071 -0.994811
-177.893859863281 58.696521759033 57.793048858643 -0.101730 0.001071 -0.994811
-117.076728820801 38.096084594727 51.523857116699 -0.101730 0.001071 -0.994811
-118.901657104492 51.267559051514 51.711978912354 -0.101730 0.001071 -0.994811
-197.772735595703 28.848943710327 59.842212677002 -0.101730 0.001071 -0.994811
-97.464042663574 24.293331146240 49.502128601074 -0.101730 0.001071 -0.994811
-195.530639648438 53.896720886230 59.611095428467 -0.101730 0.001071 -0.994811
-151.671096801758 35.507286071777 55.089935302734 -0.101730 0.001071 -0.994811
-132.094741821289 38.049892425537 53.071952819824 -0.101730 0.001071 -0.994811
-15.474563598633 14.013584136963 41.050437927246 -0.101730 0.001071 -0.994811
-20.525161743164 20.453512191772 41.571067810059 -0.101730 0.001071 -0.994811
-81.311225891113 20.653491973877 47.837055206299 -0.101730 0.001071 -0.994811
112.730941772461 5.444290161133 27.834678649902 -0.101730 0.001071 -0.994811
-139.084136962891 37.055164337158 53.792438507080 -0.101730 0.001071 -0.994811
-84.493782043457 41.039234161377 48.165122985840 -0.101730 0.001071 -0.994811
17.866043090820 23.839220046997 37.613601684570 -0.101730 0.001071 -0.994811
-124.398460388184 42.567131042480 52.278602600098 -0.101730 0.001071 -0.994811
-190.191101074219 41.979663848877 59.060680389404 -0.101730 0.001071 -0.994811
-109.427467346191 17.046150207520 50.735351562500 -0.101730 0.001071 -0.994811
-134.324371337891 26.014478683472 53.301788330078 -0.101730 0.001071 -0.994811
-157.565292358398 47.355354309082 55.697528839111 -0.101730 0.001071 -0.994811
-133.865371704102 54.499187469482 53.254478454590 -0.101730 0.001071 -0.994811
-6.109848022461 11.962385177612 40.085098266602 -0.101730 0.001071 -0.994811
96.775375366211 5.894551277161 29.479419708252 -0.101730 0.001071 -0.994811
-109.723556518555 28.722026824951 50.765872955322 -0.101730 0.001071 -0.994811
-24.129806518555 33.197158813477 41.942642211914 -0.101730 0.001071 -0.994811
-96.550674438477 40.600788116455 49.407981872559 -0.101730 0.001071 -0.994811
11.607940673828 20.989818572998 38.258705139160 -0.101730 0.001071 -0.994811
-156.875762939453 38.072662353516 55.626445770264 -0.101730 0.001071 -0.994811
-109.986274719238 45.243446350098 50.792957305908 -0.101730 0.001071 -0.994811
-49.801467895508 18.123943328857 44.588943481445 -0.101730 0.001071 -0.994811
-204.324295043945 24.087665557861 60.517566680908 -0.101730 0.001071 -0.994811
-152.499786376953 46.197956085205 55.175365447998 -0.101730 0.001071 -0.994811
-106.648605346680 20.257415771484 50.448898315430 -0.101730 0.001071 -0.994811
-161.877746582031 28.487060546875 56.142063140869 -0.101730 0.001071 -0.994811
-199.004547119141 34.788654327393 59.969192504883 -0.101730 0.001071 -0.994811
-72.652145385742 41.057426452637 46.944458007813 -0.101730 0.001071 -0.994811
-52.104965209961 19.714778900146 44.826396942139 -0.101730 0.001071 -0.994811
-140.294860839844 51.409786224365 53.917247772217 -0.101730 0.001071 -0.994811
-33.677871704102 29.273469924927 42.926883697510 -0.101730 0.001071 -0.994811
-148.461349487305 49.687576293945 54.759071350098 -0.101730 0.001071 -0.994811
19.450332641602 18.581844329834 37.450286865234 -0.101730 0.001071 -0.994811
-58.476928710938 13.144416809082 45.483234405518 -0.101730 0.001071 -0.994811
98.211227416992 54.865932464600 33.545932769775 0.052343 0.998629 0.001026
109.528617858887 54.272808074951 40.822906494141 0.052343 0.998629 0.001026
17.831192016602 59.078464508057 41.911468505859 0.052343 0.998629 0.001026
86.321792602539 55.489028930664 30.595382690430 0.052343 0.998629 0.001026
123.842552185059 53.522647857666 36.295883178711 0.052343 0.998629 0.001026
-41.301147460938 62.177459716797 50.074722290039 0.052343 0.998629 0.001026
66.134925842285 56.546974182129 46.373699188232 0.052343 0.998629 0.001026
96.761825561523 54.941886901855 40.357872009277 0.052343 0.998629 0.001026
58.746963500977 56.934162139893 41.135505676270 0.052343 0.998629 0.001026
1.604293823242 59.928882598877 49.983963012695 0.052343 0.998629 0.001026
52.393669128418 57.267124176025 42.372024536133 0.052343 0.998629 0.001026
41.369834899902 57.844856262207 47.895118713379 0.052343 0.998629 0.001026
-35.624572753906 61.879962921143 52.605663299561 0.052343 0.998629 0.001026
34.462059020996 58.206878662109 40.984706878662 0.052343 0.998629 0.001026
96.954833984375 54.931777954102 35.681495666504 0.052343 0.998629 0.001026
55.988548278809 57.078723907471 44.236259460449 0.052343 0.998629 0.001026
-76.616958618164 64.028282165527 54.332065582275 0.052343 0.998629 0.001026
18.742385864258 59.030712127686 44.071231842041 0.052343 0.998629 0.001026
84.589843750000 55.579795837402 39.793945312500 0.052343 0.998629 0.001026
-12.544128417969 60.670368194580 49.772380828857 0.052343 0.998629 0.001026
-75.370941162109 63.962982177734 49.716323852539 0.052343 0.998629 0.001026
-90.547515869141 64.758354187012 51.906913757324 0.052343 0.998629 0.001026
0.907546997070 59.965400695801 41.397979736328 0.052343 0.998629 0.001026
-77.739624023438 64.087120056152 54.717746734619 0.052343 0.998629 0.001026
-99.238433837891 65.213821411133 53.031642913818 0.052343 0.998629 0.001026
-76.064880371094 63.999351501465 51.275047302246 0.052343 0.998629 0.001026
114.183158874512 54.028873443604 44.830669403076 0.052343 0.998629 0.001026
9.628677368164 59.508346557617 39.307361602783 0.052343 0.998629 0.001026
101.327827453613 54.702598571777 29.394874572754 0.052343 0.998629 0.001026
93.300140380859 55.123310089111 31.022024154663 0.052343 0.998629 0.001026
21.948074340820 58.862709045410 49.584587097168 0.052343 0.998629 0.001026
59.634506225586 56.887649536133 37.720836639404 0.052343 0.998629 0.001026
87.644271850586 55.419723510742 30.806884765625 0.052343 0.998629 0.001026
-8.673690795898 60.467529296875 40.807025909424 0.052343 0.998629 0.001026
100.480690002441 54.746990203857 39.212882995605 0.052343 0.998629 0.001026
-17.649917602539 60.937950134277 43.590961456299 0.052343 0.998629 0.001026
-62.654113769531 63.296520233154 47.685283660889 0.052343 0.998629 0.001026
114.221771240234 54.026851654053 36.913082122803 0.052343 0.998629 0.001026
-145.684799194336 67.647972106934 57.014766693115 0.052343 0.998629 0.001026
19.541023254395 58.988861083984 37.693016052246 0.052343 0.998629 0.001026
-49.071533203125 62.584686279297 50.440567016602 0.052343 0.998629 0.001026
10.464012145996 59.464561462402 46.270240783691 0.052343 0.998629 0.001026
-111.837371826172 65.874107360840 56.013751983643 0.052343 0.998629 0.001026
-29.186355590820 61.542549133301 51.173492431641 0.052343 0.998629 0.001026
85.704452514648 55.521381378174 41.492065429688 0.052343 0.998629 0.001026
-62.853576660156 63.306976318359 48.996013641357 0.052343 0.998629 0.001026
-79.776840209961 64.193885803223 53.211902618408 0.052343 0.998629 0.001026
129.254638671875 53.239013671875 26.320211410522 0.052343 0.998629 0.001026
111.243774414063 54.182922363281 41.679637908936 0.052343 0.998629 0.001026
89.870407104492 55.303054809570 32.261318206787 0.052343 0.998629 0.001026
99.323478698730 54.807640075684 36.577289581299 0.052343 0.998629 0.001026
-73.658782958984 63.873252868652 52.777954101563 0.052343 0.998629 0.001026
18.945846557617 59.020053863525 40.587844848633 0.052343 0.998629 0.001026
-27.167938232422 61.436771392822 47.450977325439 0.052343 0.998629 0.001026
126.548721313477 53.380821228027 46.033199310303 0.052343 0.998629 0.001026
63.906761169434 56.663753509521 37.437282562256 0.052343 0.998629 0.001026
-47.288742065430 62.491256713867 47.494834899902 0.052343 0.998629 0.001026
101.719253540039 54.682079315186 46.024406433105 0.052343 0.998629 0.001026
75.944786071777 56.032867431641 32.005596160889 0.052343 0.998629 0.001026
80.358032226563 55.801578521729 31.242219924927 0.052343 0.998629 0.001026
24.358467102051 58.736385345459 49.265682220459 0.052343 0.998629 0.001026
21.325386047363 58.895347595215 40.716125488281 0.052343 0.998629 0.001026
-158.878372192383 68.339416503906 58.589042663574 0.052343 0.998629 0.001026
-4.013931274414 60.223323822021 40.732902526855 0.052343 0.998629 0.001026
57.844787597656 56.981441497803 46.165065765381 0.052343 0.998629 0.001026
21.996383666992 58.860176086426 44.378414154053 0.052343 0.998629 0.001026
107.282691955566 54.390514373779 28.878953933716 0.052343 0.998629 0.001026
-5.685592651367 60.310928344727 49.682697296143 0.052343 0.998629 0.001026
-104.278884887695 65.477981567383 52.859828948975 0.052343 0.998629 0.001026
99.558868408203 54.795303344727 34.672523498535 0.052343 0.998629 0.001026
98.842208862305 54.832862854004 34.699729919434 0.052343 0.998629 0.001026
59.066818237305 56.917400360107 42.435775756836 0.052343 0.998629 0.001026
85.094535827637 55.553344726563 46.443923950195 0.052343 0.998629 0.001026
-124.803451538086 66.553627014160 56.124572753906 0.052343 0.998629 0.001026
9.959457397461 59.491004943848 50.406280517578 0.052343 0.998629 0.001026
22.672721862793 58.824733734131 45.285747528076 0.052343 0.998629 0.001026
-49.981521606445 62.632377624512 48.182025909424 0.052343 0.998629 0.001026
-67.735870361328 63.562843322754 49.693649291992 0.052343 0.998629 0.001026
