//X Y Z Nx Ny Nz
625
91.058135986328 26.489910125732 -10.252253532410 0.000978 0.999999 0.000978
-141.944076538086 26.489910125732 -6.664539813995 0.000978 0.999999 0.000978
-160.687866210938 26.489910125732 -10.117978096008 0.000978 0.999999 0.000978
68.557373046875 26.489910125732 -9.132722854614 0.000978 0.999999 0.000978
-139.450073242188 26.489910125732 -3.253396511078 0.000978 0.999999 0.000978
12.733413696289 26.489910125732 -3.020012855530 0.000978 0.999999 0.000978
-101.085166931152 26.489910125732 1.091195106506 0.000978 0.999999 0.000978
55.245971679688 26.489910125732 -5.615544319153 0.000978 0.999999 0.000978
-123.013313293457 26.489910125732 -0.469588279724 0.000978 0.999999 0.000978
-99.718063354492 26.489910125732 0.806478500366 0.000978 0.999999 0.000978
-81.545860290527 26.489910125732 -7.697029113770 0.000978 0.999999 0.000978
-131.845092773438 26.489910125732 -9.001212120056 0.000978 0.999999 0.000978
-73.950088500977 26.489910125732 -6.485412597656 0.000978 0.999999 0.000978
-66.222991943359 26.489910125732 -9.787673950195 0.000978 0.999999 0.000978
-117.331298828125 26.489910125732 -5.240265846252 0.000978 0.999999 0.000978
-108.319000244141 26.489910125732 -9.039960861206 0.000978 0.999999 0.000978
-81.569839477539 26.489910125732 -2.555735588074 0.000978 0.999999 0.000978
26.874145507813 26.489910125732 -8.308281898499 0.000978 0.999999 0.000978
-67.659942626953 26.489910125732 -8.327778816223 0.000978 0.999999 0.000978
-17.403564453125 26.489910125732 -3.751628875732 0.000978 0.999999 0.000978
-102.806030273438 26.489910125732 0.623835563660 0.000978 0.999999 0.000978
-6.143539428711 26.489910125732 -5.057698726654 0.000978 0.999999 0.000978
-20.859954833984 26.489910125732 -3.813651561737 0.000978 0.999999 0.000978
-46.200271606445 26.489910125732 1.309901237488 0.000978 0.999999 0.000978
-135.834747314453 26.489910125732 -5.196194648743 0.000978 0.999999 0.000978
-107.815048217773 26.489910125732 -3.788667201996 0.000978 0.999999 0.000978
-70.349800109863 26.489910125732 -9.107027053833 0.000978 0.999999 0.000978
-87.101486206055 26.489910125732 -7.494709968567 0.000978 0.999999 0.000978
-114.752960205078 26.489910125732 -2.311150550842 0.000978 0.999999 0.000978
-144.764816284180 26.489910125732 -8.582871437073 0.000978 0.999999 0.000978
-118.734413146973 26.489910125732 2.380124092102 0.000978 0.999999 0.000978
-90.127456665039 26.489910125732 -8.804362297058 0.000978 0.999999 0.000978
-133.618179321289 26.489910125732 -6.980837821960 0.000978 0.999999 0.000978
-29.103576660156 26.489910125732 -6.818728923798 0.000978 0.999999 0.000978
101.814727783203 26.489910125732 -7.295572280884 0.000978 0.999999 0.000978
-145.889587402344 26.489910125732 -6.982831001282 0.000978 0.999999 0.000978
106.097198486328 26.489910125732 -7.520318984985 0.000978 0.999999 0.000978
-26.813323974609 26.489910125732 -5.618085861206 0.000978 0.999999 0.000978
62.819519042969 26.489910125732 -8.376800537109 0.000978 0.999999 0.000978
-155.035888671875 26.489910125732 -10.403145790100 0.000978 0.999999 0.000978
-168.140106201172 26.489910125732 1.187823295593 0.000978 0.999999 0.000978
65.018829345703 26.489910125732 -9.244142532349 0.000978 0.999999 0.000978
-30.052383422852 26.489910125732 -7.691338539124 0.000978 0.999999 0.000978
-129.288360595703 26.489910125732 -6.302350997925 0.000978 0.999999 0.000978
-84.039871215820 26.489910125732 1.183461189270 0.000978 0.999999 0.000978
-17.708572387695 26.489910125732 -6.327449798584 0.000978 0.999999 0.000978
116.504455566406 26.489910125732 -8.595369338989 0.000978 0.999999 0.000978
-30.356353759766 26.489910125732 -5.783784866333 0.000978 0.999999 0.000978
-152.549011230469 26.489910125732 -2.645156860352 0.000978 0.999999 0.000978
-126.065231323242 26.489910125732 -8.763210296631 0.000978 0.999999 0.000978
-52.687721252441 26.489910125732 -1.817867279053 0.000978 0.999999 0.000978
-97.173156738281 26.489910125732 4.398213386536 0.000978 0.999999 0.000978
-133.026809692383 26.489910125732 4.841222763062 0.000978 0.999999 0.000978
60.526336669922 26.489910125732 -10.320101737976 0.000978 0.999999 0.000978
-76.230766296387 26.489910125732 -4.821897983551 0.000978 0.999999 0.000978
-10.267852783203 26.489910125732 -6.757445812225 0.000978 0.999999 0.000978
9.951675415039 26.489910125732 -10.728475570679 0.000978 0.999999 0.000978
-2.814117431641 26.489910125732 -7.748981475830 0.000978 0.999999 0.000978
-100.470909118652 26.489910125732 1.979389190674 0.000978 0.999999 0.000978
62.467391967773 26.489910125732 -5.005587100983 0.000978 0.999999 0.000978
-157.385757446289 26.489910125732 5.242888450623 0.000978 0.999999 0.000978
94.407012939453 26.489910125732 -6.678021430969 0.000978 0.999999 0.000978
13.947662353516 26.489910125732 -2.418259620667 0.000978 0.999999 0.000978
-105.625297546387 26.489910125732 -8.894649505615 0.000978 0.999999 0.000978
-41.287658691406 26.489910125732 -3.092783927917 0.000978 0.999999 0.000978
27.600570678711 26.489910125732 -4.142007827759 0.000978 0.999999 0.000978
85.894927978516 26.489910125732 -9.148928642273 0.000978 0.999999 0.000978
-165.093841552734 26.489910125732 4.119791030884 0.000978 0.999999 0.000978
-56.305511474609 26.489910125732 -0.404925346375 0.000978 0.999999 0.000978
-73.857521057129 26.489910125732 -2.132643699646 0.000978 0.999999 0.000978
-95.147972106934 26.489910125732 1.402309417725 0.000978 0.999999 0.000978
-63.613601684570 26.489910125732 -9.006204605103 0.000978 0.999999 0.000978
-67.302589416504 26.489910125732 -9.140562057495 0.000978 0.999999 0.000978
-149.948287963867 26.489910125732 5.201252937317 0.000978 0.999999 0.000978
-69.689468383789 26.489910125732 1.113180160522 0.000978 0.999999 0.000978
-41.323272705078 26.489910125732 -1.410648345947 0.000978 0.999999 0.000978
-83.972709655762 26.489910125732 -10.373591423035 0.000978 0.999999 0.000978
-129.415222167969 26.489910125732 5.677397727966 0.000978 0.999999 0.000978
-53.833740234375 26.489910125732 0.411275863647 0.000978 0.999999 0.000978
13.738647460938 26.489910125732 -6.628718852997 0.000978 0.999999 0.000978
85.920822143555 26.489910125732 -10.637075424194 0.000978 0.999999 0.000978
-143.399688720703 26.489910125732 -3.530857086182 0.000978 0.999999 0.000978
-23.840148925781 26.489910125732 -6.655311584473 0.000978 0.999999 0.000978
-122.468284606934 26.489910125732 -0.421649932861 0.000978 0.999999 0.000978
-52.449150085449 26.489910125732 -0.904819488525 0.000978 0.999999 0.000978
-148.192108154297 26.489910125732 6.409474372864 0.000978 0.999999 0.000978
-151.016632080078 26.489910125732 4.963519096375 0.000978 0.999999 0.000978
-9.444061279297 26.489910125732 -4.687785148621 0.000978 0.999999 0.000978
50.482070922852 26.489910125732 -10.543119430542 0.000978 0.999999 0.000978
-77.146804809570 26.489910125732 -7.058303356171 0.000978 0.999999 0.000978
-63.795387268066 26.489910125732 2.585084915161 0.000978 0.999999 0.000978
-54.809310913086 26.489910125732 -3.779268264771 0.000978 0.999999 0.000978
-45.679885864258 26.489910125732 -10.771738052368 0.000978 0.999999 0.000978
-18.979782104492 26.489910125732 -10.048028945923 0.000978 0.999999 0.000978
-161.002426147461 26.489910125732 1.188230514526 0.000978 0.999999 0.000978
-145.433181762695 26.489910125732 -2.434370040894 0.000978 0.999999 0.000978
-89.142074584961 26.489910125732 -4.131937980652 0.000978 0.999999 0.000978
-74.335601806641 26.489910125732 1.525830268860 0.000978 0.999999 0.000978
-47.352836608887 26.489910125732 -0.481894493103 0.000978 0.999999 0.000978
-142.879608154297 26.489910125732 -3.473784446716 0.000978 0.999999 0.000978
-88.957183837891 26.489910125732 -6.038088798523 0.000978 0.999999 0.000978
-29.762634277344 26.489910125732 -3.208338260651 0.000978 0.999999 0.000978
11.034423828125 26.489910125732 -4.855069160461 0.000978 0.999999 0.000978
-62.348350524902 26.489910125732 -0.696858406067 0.000978 0.999999 0.000978
-125.142829895020 26.489910125732 -1.559478759766 0.000978 0.999999 0.000978
-96.594268798828 26.489910125732 -3.040492057800 0.000978 0.999999 0.000978
-147.319656372070 26.489910125732 -1.460028648376 0.000978 0.999999 0.000978
-131.789962768555 26.489910125732 -3.768536567688 0.000978 0.999999 0.000978
32.643936157227 26.489910125732 -7.708998680115 0.000978 0.999999 0.000978
-139.203033447266 26.489910125732 -1.739749908447 0.000978 0.999999 0.000978
66.140045166016 26.489910125732 -9.459251403809 0.000978 0.999999 0.000978
-32.781784057617 26.489910125732 -2.168970108032 0.000978 0.999999 0.000978
-30.674362182617 26.489910125732 -8.270136833191 0.000978 0.999999 0.000978
-142.590515136719 26.489910125732 -2.202342033386 0.000978 0.999999 0.000978
-51.312133789063 26.489910125732 -1.305276870728 0.000978 0.999999 0.000978
-60.130905151367 26.489910125732 -3.824909687042 0.000978 0.999999 0.000978
-48.551193237305 26.489910125732 -5.047321796417 0.000978 0.999999 0.000978
-148.375137329102 26.489910125732 6.270750999451 0.000978 0.999999 0.000978
-150.725357055664 26.489910125732 0.129179000854 0.000978 0.999999 0.000978
34.288040161133 26.489910125732 -8.060213088989 0.000978 0.999999 0.000978
-89.746337890625 26.489910125732 -1.842047691345 0.000978 0.999999 0.000978
21.907882690430 26.489910125732 -4.861047744751 0.000978 0.999999 0.000978
-137.190917968750 26.489910125732 -8.351207733154 0.000978 0.999999 0.000978
-119.131080627441 26.489910125732 -10.244046211243 0.000978 0.999999 0.000978
-133.806488037109 26.489910125732 -6.138665676117 0.000978 0.999999 0.000978
31.071609497070 26.489910125732 -7.325896263123 0.000978 0.999999 0.000978
-33.097747802734 26.489910125732 -1.316289901733 0.000978 0.999999 0.000978
-128.696182250977 26.489910125732 -8.459637641907 0.000978 0.999999 0.000978
13.303955078125 26.489910125732 -7.748332500458 0.000978 0.999999 0.000978
-168.746841430664 26.489910125732 4.480301856995 0.000978 0.999999 0.000978
-143.133743286133 26.489910125732 -10.495187759399 0.000978 0.999999 0.000978
-1.886810302734 26.489910125732 -2.996203422546 0.000978 0.999999 0.000978
-127.343399047852 26.489910125732 5.414364814758 0.000978 0.999999 0.000978
-114.124885559082 26.489910125732 4.504952430725 0.000978 0.999999 0.000978
-13.240478515625 26.489910125732 -2.116225242615 0.000978 0.999999 0.000978
-102.498428344727 26.489910125732 -4.743733406067 0.000978 0.999999 0.000978
-126.212615966797 26.489910125732 -5.210485935211 0.000978 0.999999 0.000978
-60.721107482910 26.489910125732 -9.148288726807 0.000978 0.999999 0.000978
12.769424438477 26.489910125732 -4.974523067474 0.000978 0.999999 0.000978
91.602142333984 26.489910125732 -10.727249145508 0.000978 0.999999 0.000978
5.778320312500 26.489910125732 -10.382005691528 0.000978 0.999999 0.000978
58.164077758789 26.489910125732 -4.548551082611 0.000978 0.999999 0.000978
2.366271972656 26.489910125732 -7.877464294434 0.000978 0.999999 0.000978
-82.080711364746 26.489910125732 -6.474237442017 0.000978 0.999999 0.000978
-137.179077148438 26.489910125732 -0.559940338135 0.000978 0.999999 0.000978
-76.609634399414 26.489910125732 -4.550626754761 0.000978 0.999999 0.000978
-111.933441162109 26.489910125732 -3.994605064392 0.000978 0.999999 0.000978
-78.790679931641 26.489910125732 -4.464813709259 0.000978 0.999999 0.000978
87.334991455078 26.489910125732 -9.477538108826 0.000978 0.999999 0.000978
-143.299179077148 26.489910125732 5.956654548645 0.000978 0.999999 0.000978
-167.003982543945 26.489910125732 -0.115517616272 0.000978 0.999999 0.000978
-1.900543212891 26.489910125732 -11.109278678894 0.000978 0.999999 0.000978
-52.869888305664 26.489910125732 -8.765128135681 0.000978 0.999999 0.000978
-53.538085937500 26.489910125732 -5.755693435669 0.000978 0.999999 0.000978
-140.276901245117 26.489910125732 -0.596253395081 0.000978 0.999999 0.000978
-143.623382568359 26.489910125732 1.308420181274 0.000978 0.999999 0.000978
-140.812423706055 26.489910125732 -1.671444892883 0.000978 0.999999 0.000978
26.605545043945 26.489910125732 -6.813399314880 0.000978 0.999999 0.000978
21.857498168945 26.489910125732 -4.992577075958 0.000978 0.999999 0.000978
12.626876831055 26.489910125732 -1.971934318542 0.000978 0.999999 0.000978
-8.796615600586 26.489910125732 -10.974090576172 0.000978 0.999999 0.000978
21.942337036133 26.489910125732 -8.831634521484 0.000978 0.999999 0.000978
57.470260620117 26.489910125732 -5.877762317657 0.000978 0.999999 0.000978
-119.599334716797 26.489910125732 -4.094781875610 0.000978 0.999999 0.000978
-61.507240295410 26.489910125732 0.993971824646 0.000978 0.999999 0.000978
-66.130432128906 26.489910125732 -4.989367961884 0.000978 0.999999 0.000978
-69.213005065918 26.489910125732 -9.695320129395 0.000978 0.999999 0.000978
-25.599487304688 26.489910125732 -10.038666725159 0.000978 0.999999 0.000978
-100.342987060547 26.489910125732 2.448844909668 0.000978 0.999999 0.000978
-87.660102844238 26.489910125732 -0.381278991699 0.000978 0.999999 0.000978
-132.171936035156 26.489910125732 -4.586841106415 0.000978 0.999999 0.000978
-48.466209411621 26.489910125732 -1.681324958801 0.000978 0.999999 0.000978
-79.334320068359 26.489910125732 -1.727206230164 0.000978 0.999999 0.000978
-65.564094543457 26.489910125732 -6.102382659912 0.000978 0.999999 0.000978
-48.265579223633 26.489910125732 -4.569316387177 0.000978 0.999999 0.000978
-167.147827148438 26.489910125732 -2.864273071289 0.000978 0.999999 0.000978
-12.697586059570 26.489910125732 -0.765168190002 0.000978 0.999999 0.000978
-136.429779052734 26.489910125732 -1.639294624329 0.000978 0.999999 0.000978
-132.633773803711 26.489910125732 2.053265571594 0.000978 0.999999 0.000978
-95.042243957520 26.489910125732 -5.312078952789 0.000978 0.999999 0.000978
-110.063140869141 26.489910125732 3.049424171448 0.000978 0.999999 0.000978
-150.404876708984 26.489910125732 -5.371513843536 0.000978 0.999999 0.000978
59.279983520508 26.489910125732 -8.533313751221 0.000978 0.999999 0.000978
-161.547363281250 26.489910125732 -0.415572166443 0.000978 0.999999 0.000978
-118.242340087891 26.489910125732 0.909212112427 0.000978 0.999999 0.000978
81.652038574219 26.489910125732 -9.531860351563 0.000978 0.999999 0.000978
-118.169342041016 26.489910125732 -6.444542884827 0.000978 0.999999 0.000978
-156.873870849609 26.489910125732 4.758555412292 0.000978 0.999999 0.000978
-64.981903076172 26.489910125732 -9.055541992188 0.000978 0.999999 0.000978
-78.044738769531 26.489910125732 -0.117752075195 0.000978 0.999999 0.000978
10.678558349609 26.489910125732 -4.561721801758 0.000978 0.999999 0.000978
-169.786712646484 26.489910125732 5.583775520325 0.000978 0.999999 0.000978
-12.800521850586 26.489910125732 -11.018198013306 0.000978 0.999999 0.000978
-41.096481323242 26.489910125732 -7.625473976135 0.000978 0.999999 0.000978
135.279663085938 26.489910125732 -9.153493881226 0.000978 0.999999 0.000978
69.252975463867 26.489910125732 -7.145947456360 0.000978 0.999999 0.000978
-65.078163146973 26.489910125732 -8.481904029846 0.000978 0.999999 0.000978
-20.913375854492 26.489910125732 -3.192196369171 0.000978 0.999999 0.000978
122.844909667969 26.489910125732 -10.647724151611 0.000978 0.999999 0.000978
-132.221755981445 26.489910125732 -5.322595596313 0.000978 0.999999 0.000978
53.248916625977 26.489910125732 -8.167929649353 0.000978 0.999999 0.000978
-141.656524658203 26.489910125732 -0.792946815491 0.000978 0.999999 0.000978
-166.423339843750 26.489910125732 0.712035179138 0.000978 0.999999 0.000978
-126.412261962891 26.489910125732 -9.893376350403 0.000978 0.999999 0.000978
-131.428451538086 26.489910125732 -1.334021568298 0.000978 0.999999 0.000978
-51.363868713379 26.489910125732 -4.364770412445 0.000978 0.999999 0.000978
-79.951774597168 26.489910125732 2.267804145813 0.000978 0.999999 0.000978
-32.091354370117 26.489910125732 0.680659294128 0.000978 0.999999 0.000978
-108.286422729492 26.489910125732 -1.118645668030 0.000978 0.999999 0.000978
-124.304039001465 26.489910125732 -2.540946006775 0.000978 0.999999 0.000978
-147.015136718750 26.489910125732 -5.316621780396 0.000978 0.999999 0.000978
-64.662719726563 26.489910125732 -6.170868873596 0.000978 0.999999 0.000978
-25.331375122070 26.489910125732 -8.324935913086 0.000978 0.999999 0.000978
-138.926513671875 26.489910125732 1.816086769104 0.000978 0.999999 0.000978
35.792236328125 26.489910125732 -3.610354900360 0.000978 0.999999 0.000978
-114.664077758789 26.489910125732 -3.551821708679 0.000978 0.999999 0.000978
-169.330520629883 26.489910125732 -1.949314117432 0.000978 0.999999 0.000978
-21.681228637695 26.489910125732 -7.996139049530 0.000978 0.999999 0.000978
-57.515632629395 26.489910125732 -8.073767662048 0.000978 0.999999 0.000978
-86.346084594727 26.489910125732 0.124363899231 0.000978 0.999999 0.000978
-142.467346191406 26.489910125732 -1.280863761902 0.000978 0.999999 0.000978
-6.360275268555 26.489910125732 -5.746291160583 0.000978 0.999999 0.000978
-88.885078430176 26.489910125732 -8.739384651184 0.000978 0.999999 0.000978
-131.414367675781 26.489910125732 2.768839836121 0.000978 0.999999 0.000978
-163.060699462891 26.489910125732 -2.608170509338 0.000978 0.999999 0.000978
-92.233818054199 26.489910125732 -2.645419120789 0.000978 0.999999 0.000978
-104.232673645020 26.489910125732 -4.380650520325 0.000978 0.999999 0.000978
-79.956878662109 26.489910125732 -1.136455535889 0.000978 0.999999 0.000978
-163.179122924805 26.489910125732 4.427777290344 0.000978 0.999999 0.000978
-9.379577636719 26.489910125732 -3.937493801117 0.000978 0.999999 0.000978
-132.982849121094 26.489910125732 -5.972643852234 0.000978 0.999999 0.000978
-42.846473693848 26.489910125732 -8.066808700562 0.000978 0.999999 0.000978
13.841110229492 26.489910125732 -9.089652061462 0.000978 0.999999 0.000978
-80.096611022949 26.489910125732 -8.379097938538 0.000978 0.999999 0.000978
-169.937255859375 26.489910125732 6.430859565735 0.000978 0.999999 0.000978
-153.371932983398 26.489910125732 7.104342460632 0.000978 0.999999 0.000978
72.154861450195 26.489910125732 -8.509241104126 0.000978 0.999999 0.000978
-107.027626037598 26.489910125732 4.136028289795 0.000978 0.999999 0.000978
1.352081298828 26.489910125732 -1.704810142517 0.000978 0.999999 0.000978
-69.540542602539 26.489910125732 -3.668941497803 0.000978 0.999999 0.000978
-53.932220458984 26.489910125732 -6.063455581665 0.000978 0.999999 0.000978
-120.009033203125 26.489910125732 -3.978492259979 0.000978 0.999999 0.000978
26.164123535156 26.489910125732 -9.608356475830 0.000978 0.999999 0.000978
67.858062744141 26.489910125732 -8.585853576660 0.000978 0.999999 0.000978
-78.800765991211 26.489910125732 -6.945775508881 0.000978 0.999999 0.000978
-50.153541564941 26.489910125732 -10.880194664001 0.000978 0.999999 0.000978
13.395935058594 26.489910125732 -8.385949134827 0.000978 0.999999 0.000978
-165.964096069336 26.489910125732 3.441502571106 0.000978 0.999999 0.000978
-100.160072326660 26.489910125732 -9.005778312683 0.000978 0.999999 0.000978
64.034149169922 26.489910125732 -5.829595088959 0.000978 0.999999 0.000978
-125.862541198730 26.489910125732 -7.177736282349 0.000978 0.999999 0.000978
-41.418014526367 26.489910125732 1.148352622986 0.000978 0.999999 0.000978
10.952102661133 26.489910125732 -3.377395629883 0.000978 0.999999 0.000978
-162.713317871094 26.489910125732 3.511121749878 0.000978 0.999999 0.000978
-57.277297973633 26.489910125732 -7.156167984009 0.000978 0.999999 0.000978
-151.669723510742 26.489910125732 -7.418692588806 0.000978 0.999999 0.000978
8.832077026367 26.489910125732 -9.618324279785 0.000978 0.999999 0.000978
-101.172950744629 26.489910125732 -9.029861450195 0.000978 0.999999 0.000978
96.563629150391 26.489910125732 -9.890788078308 0.000978 0.999999 0.000978
115.492919921875 26.489910125732 -11.095582008362 0.000978 0.999999 0.000978
108.037933349609 26.489910125732 -10.146267890930 0.000978 0.999999 0.000978
-97.797187805176 26.489910125732 -2.902863502502 0.000978 0.999999 0.000978
10.950134277344 26.489910125732 -10.795268058777 0.000978 0.999999 0.000978
-72.549240112305 26.489910125732 -6.345164299011 0.000978 0.999999 0.000978
-75.439811706543 26.489910125732 -9.090766906738 0.000978 0.999999 0.000978
-83.116012573242 26.489910125732 0.170117378235 0.000978 0.999999 0.000978
116.804504394531 26.489910125732 -8.819364547729 0.000978 0.999999 0.000978
-51.640930175781 26.489910125732 -1.587621688843 0.000978 0.999999 0.000978
-21.122695922852 26.489910125732 -6.236441135406 0.000978 0.999999 0.000978
-9.762023925781 26.489910125732 -4.781535625458 0.000978 0.999999 0.000978
-47.527908325195 26.489910125732 -8.546288490295 0.000978 0.999999 0.000978
-166.309982299805 26.489910125732 0.321753501892 0.000978 0.999999 0.000978
-65.647575378418 26.489910125732 -0.188557624817 0.000978 0.999999 0.000978
-97.701828002930 26.489910125732 -5.296236515045 0.000978 0.999999 0.000978
-156.034210205078 26.489910125732 8.003502845764 0.000978 0.999999 0.000978
-151.787948608398 26.489910125732 -6.015757083893 0.000978 0.999999 0.000978
-124.192596435547 26.489910125732 -5.714365959167 0.000978 0.999999 0.000978
-157.220291137695 26.489910125732 -3.119225502014 0.000978 0.999999 0.000978
-136.922225952148 26.489910125732 6.320263862610 0.000978 0.999999 0.000978
-85.693923950195 26.489910125732 -8.431608200073 0.000978 0.999999 0.000978
-40.186645507813 26.489910125732 -5.407834053040 0.000978 0.999999 0.000978
-166.760177612305 26.489910125732 8.506733894348 0.000978 0.999999 0.000978
-117.300720214844 26.489910125732 -1.045022010803 0.000978 0.999999 0.000978
-59.667495727539 26.489910125732 -9.293910980225 0.000978 0.999999 0.000978
-85.394401550293 26.489910125732 -6.314148902893 0.000978 0.999999 0.000978
63.562042236328 26.489910125732 -8.452622413635 0.000978 0.999999 0.000978
-125.267562866211 26.489910125732 4.304237365723 0.000978 0.999999 0.000978
4.934509277344 26.489910125732 -8.762994766235 0.000978 0.999999 0.000978
57.576919555664 26.489910125732 -5.950112342834 0.000978 0.999999 0.000978
-88.589462280273 26.489910125732 -9.830724716187 0.000978 0.999999 0.000978
-11.461227416992 26.489910125732 -6.333544731140 0.000978 0.999999 0.000978
-12.797042846680 26.489910125732 -3.523737907410 0.000978 0.999999 0.000978
-1.586334228516 26.489910125732 -5.945211410522 0.000978 0.999999 0.000978
-43.701629638672 26.489910125732 -0.905793190002 0.000978 0.999999 0.000978
-87.158439636230 26.489910125732 1.918466567993 0.000978 0.999999 0.000978
-138.224472045898 26.489910125732 -1.412143707275 0.000978 0.999999 0.000978
65.533630371094 26.489910125732 -5.716027259827 0.000978 0.999999 0.000978
-158.440933227539 26.489910125732 -9.136955261230 0.000978 0.999999 0.000978
-33.502777099609 26.489910125732 -5.712141990662 0.000978 0.999999 0.000978
-56.505676269531 26.489910125732 -8.359137535095 0.000978 0.999999 0.000978
-111.110488891602 26.489910125732 -11.066300392151 0.000978 0.999999 0.000978
-140.692321777344 26.489910125732 -0.552325248718 0.000978 0.999999 0.000978
32.967803955078 26.489910125732 -9.650852203369 0.000978 0.999999 0.000978
106.653198242188 26.489910125732 -9.483774185181 0.000978 0.999999 0.000978
34.573516845703 26.489910125732 -6.476280689240 0.000978 0.999999 0.000978
51.411422729492 26.489910125732 -7.388919830322 0.000978 0.999999 0.000978
-6.403594970703 26.489910125732 -10.703501701355 0.000978 0.999999 0.000978
29.993927001953 26.489910125732 -4.728703498840 0.000978 0.999999 0.000978
120.117279052734 26.489910125732 -9.528376579285 0.000978 0.999999 0.000978
-148.093856811523 26.489910125732 -3.222544670105 0.000978 0.999999 0.000978
-80.180137634277 26.489910125732 -6.709686756134 0.000978 0.999999 0.000978
-139.493728637695 26.489910125732 -8.328069686890 0.000978 0.999999 0.000978
-5.222808837891 26.489910125732 -3.362368106842 0.000978 0.999999 0.000978
-32.047668457031 26.489910125732 -1.323393821716 0.000978 0.999999 0.000978
18.752166748047 26.489910125732 -5.588609695435 0.000978 0.999999 0.000978
-148.812683105469 26.489910125732 -2.468421936035 0.000978 0.999999 0.000978
-103.599098205566 26.489910125732 -4.523009300232 0.000978 0.999999 0.000978
-89.179695129395 26.489910125732 -0.868859291077 0.000978 0.999999 0.000978
-102.023468017578 26.489910125732 0.091670989990 0.000978 0.999999 0.000978
-96.871536254883 26.489910125732 -2.705196380615 0.000978 0.999999 0.000978
-14.506027221680 26.489910125732 -4.537810325623 0.000978 0.999999 0.000978
62.494918823242 26.489910125732 -10.002147674561 0.000978 0.999999 0.000978
83.129379272461 26.489910125732 -10.352570533752 0.000978 0.999999 0.000978
60.742584228516 26.489910125732 -5.874739170074 0.000978 0.999999 0.000978
-170.000000000000 -21.948543548584 7.594962120056 -0.999999 0.000978 0.000978
-170.000000000000 -21.628791809082 6.389330387115 -0.999999 0.000978 0.000978
-170.000000000000 -19.820569992065 3.298384428024 -0.999999 0.000978 0.000978
-170.000000000000 -20.334857940674 3.457196474075 -0.999999 0.000978 0.000978
-170.000000000000 -19.517982482910 1.300703644753 -0.999999 0.000978 0.000978
-170.000000000000 -22.476989746094 6.164345741272 -0.999999 0.000978 0.000978
-170.000000000000 -22.722942352295 -5.949069976807 -0.999999 0.000978 0.000978
-170.000000000000 -18.850206375122 -0.549499511719 -0.999999 0.000978 0.000978
-170.000000000000 -22.468408584595 -7.943976402283 -0.999999 0.000978 0.000978
-170.000000000000 -22.766307830811 -6.907332897186 -0.999999 0.000978 0.000978
-170.000000000000 -22.001213073730 4.142553806305 -0.999999 0.000978 0.000978
-170.000000000000 -21.286323547363 3.373064041138 -0.999999 0.000978 0.000978
-170.000000000000 -21.989622116089 5.127898216248 -0.999999 0.000978 0.000978
-170.000000000000 -20.796506881714 -0.597726345062 -0.999999 0.000978 0.000978
-170.000000000000 -20.935373306274 -6.942404270172 -0.999999 0.000978 0.000978
-170.000000000000 12.143862724304 -8.703765869141 -0.999999 0.000978 0.000978
-170.000000000000 -11.302272796631 -4.603471755981 -0.999999 0.000978 0.000978
-170.000000000000 -8.164944648743 -0.150455147028 -0.999999 0.000978 0.000978
-170.000000000000 12.870431900024 6.490372180939 -0.999999 0.000978 0.000978
-170.000000000000 -11.535210609436 2.046331644058 -0.999999 0.000978 0.000978
-170.000000000000 7.467249393463 5.766254425049 -0.999999 0.000978 0.000978
-170.000000000000 14.853034019470 7.127958297729 -0.999999 0.000978 0.000978
-170.000000000000 -7.733337402344 4.592088699341 -0.999999 0.000978 0.000978
-170.000000000000 -7.985615730286 7.460840225220 -0.999999 0.000978 0.000978
-170.000000000000 9.919110298157 7.350290775299 -0.999999 0.000978 0.000978
-170.000000000000 -9.925055503845 6.264573097229 -0.999999 0.000978 0.000978
-170.000000000000 2.339100599289 7.225243568420 -0.999999 0.000978 0.000978
-170.000000000000 -2.587473154068 7.203201293945 -0.999999 0.000978 0.000978
-170.000000000000 -5.845803737640 5.568256378174 -0.999999 0.000978 0.000978
-170.000000000000 -4.278784751892 7.029340744019 -0.999999 0.000978 0.000978
-170.000000000000 -2.463036775589 7.242350101471 -0.999999 0.000978 0.000978
-170.000000000000 -6.825355529785 4.907845497131 -0.999999 0.000978 0.000978
-170.000000000000 20.754928588867 8.864207267761 -0.999999 0.000978 0.000978
-170.000000000000 -20.021579742432 7.335226058960 -0.999999 0.000978 0.000978
-170.000000000000 -9.257471084595 3.646139144897 -0.999999 0.000978 0.000978
-170.000000000000 -0.993811130524 6.070794105530 -0.999999 0.000978 0.000978
-170.000000000000 0.914683818817 7.701276779175 -0.999999 0.000978 0.000978
-170.000000000000 -8.567881584167 6.153542518616 -0.999999 0.000978 0.000978
-170.000000000000 0.485867023468 5.294088840485 -0.999999 0.000978 0.000978
-170.000000000000 -19.304723739624 6.992650032043 -0.999999 0.000978 0.000978
-170.000000000000 -11.819898605347 7.331929206848 -0.999999 0.000978 0.000978
-170.000000000000 -14.044438362122 7.793927192688 -0.999999 0.000978 0.000978
-170.000000000000 -7.304140090942 7.372398376465 -0.999999 0.000978 0.000978
-170.000000000000 -9.265055656433 6.662374019623 -0.999999 0.000978 0.000978
-170.000000000000 3.386437177658 7.054460048676 -0.999999 0.000978 0.000978
-170.000000000000 -4.789909362793 6.172435760498 -0.999999 0.000978 0.000978
-170.000000000000 -12.065679550171 3.812800884247 -0.999999 0.000978 0.000978
-170.000000000000 -18.806579589844 7.346555709839 -0.999999 0.000978 0.000978
-170.000000000000 -14.417574882507 3.148545742035 -0.999999 0.000978 0.000978
-170.000000000000 -18.183568954468 -6.166335582733 -0.999999 0.000978 0.000978
-170.000000000000 -19.715778350830 -8.534230232239 -0.999999 0.000978 0.000978
-170.000000000000 -9.201990127563 -9.418987274170 -0.999999 0.000978 0.000978
-170.000000000000 -7.288675308228 -6.444718360901 -0.999999 0.000978 0.000978
-170.000000000000 -14.824640274048 -7.601272583008 -0.999999 0.000978 0.000978
-170.000000000000 -7.435298919678 -6.572214603424 -0.999999 0.000978 0.000978
-170.000000000000 -4.434864997864 -9.995935440063 -0.999999 0.000978 0.000978
-170.000000000000 -6.802377700806 -8.829071998596 -0.999999 0.000978 0.000978
-170.000000000000 4.044476032257 -10.823595046997 -0.999999 0.000978 0.000978
-170.000000000000 3.662931442261 -10.796099662781 -0.999999 0.000978 0.000978
-170.000000000000 -2.193144798279 -9.029053688049 -0.999999 0.000978 0.000978
-170.000000000000 -6.558496475220 -6.923397064209 -0.999999 0.000978 0.000978
-170.000000000000 -1.913178443909 -9.773488044739 -0.999999 0.000978 0.000978
-170.000000000000 -13.312339782715 -8.439676284790 -0.999999 0.000978 0.000978
-170.000000000000 -19.402746200562 -10.379491806030 -0.999999 0.000978 0.000978
-170.000000000000 -19.762960433960 -9.235498428345 -0.999999 0.000978 0.000978
-170.000000000000 -4.970932483673 -10.394816398621 -0.999999 0.000978 0.000978
-170.000000000000 7.519651412964 -9.217961311340 -0.999999 0.000978 0.000978
-170.000000000000 4.657745361328 -8.416849136353 -0.999999 0.000978 0.000978
-170.000000000000 -17.093406677246 -10.021462440491 -0.999999 0.000978 0.000978
-170.000000000000 -18.021930694580 -8.897390365601 -0.999999 0.000978 0.000978
-170.000000000000 -11.316383361816 -6.177297592163 -0.999999 0.000978 0.000978
-170.000000000000 1.964302062988 -10.464547157288 -0.999999 0.000978 0.000978
-170.000000000000 -13.185842514038 -6.604130744934 -0.999999 0.000978 0.000978
-170.000000000000 -6.448383331299 -8.128128051758 -0.999999 0.000978 0.000978
-170.000000000000 14.021203994751 -10.214059829712 -0.999999 0.000978 0.000978
-170.000000000000 1.432298660278 -10.125925064087 -0.999999 0.000978 0.000978
-170.000000000000 -15.627941131592 -6.679029464722 -0.999999 0.000978 0.000978
-170.000000000000 -13.020204544067 -8.595149040222 -0.999999 0.000978 0.000978
-170.000000000000 1.066072106361 -7.183897972107 -0.999999 0.000978 0.000978
-170.000000000000 -0.052285403013 -6.798442363739 -0.999999 0.000978 0.000978
-170.000000000000 8.947126388550 -7.700800895691 -0.999999 0.000978 0.000978
-170.000000000000 -8.972752571106 -4.560921669006 -0.999999 0.000978 0.000978
-170.000000000000 7.549334049225 -7.318625926971 -0.999999 0.000978 0.000978
-170.000000000000 -8.731211662292 -3.823234319687 -0.999999 0.000978 0.000978
-170.000000000000 -9.770417213440 -2.813456058502 -0.999999 0.000978 0.000978
-170.000000000000 15.580694198608 -8.638564109802 -0.999999 0.000978 0.000978
-170.000000000000 -6.078628540039 1.519585132599 -0.999999 0.000978 0.000978
-170.000000000000 -0.646429061890 2.993377685547 -0.999999 0.000978 0.000978
-170.000000000000 0.930896341801 3.862633228302 -0.999999 0.000978 0.000978
-170.000000000000 0.163027703762 3.339816093445 -0.999999 0.000978 0.000978
-170.000000000000 -8.441457748413 2.269998788834 -0.999999 0.000978 0.000978
-170.000000000000 19.197580337524 -8.517877578735 -0.999999 0.000978 0.000978
-170.000000000000 8.015724182129 -4.383405208588 -0.999999 0.000978 0.000978
-170.000000000000 20.246732711792 -8.610510826111 -0.999999 0.000978 0.000978
-170.000000000000 11.493268966675 2.929629802704 -0.999999 0.000978 0.000978
-170.000000000000 -0.870267391205 0.308389484882 -0.999999 0.000978 0.000978
-170.000000000000 -5.710460186005 -1.426160097122 -0.999999 0.000978 0.000978
-170.000000000000 -4.176671504974 -1.471093654633 -0.999999 0.000978 0.000978
-170.000000000000 -4.371016979218 -2.583503961563 -0.999999 0.000978 0.000978
-170.000000000000 9.445490837097 0.499923914671 -0.999999 0.000978 0.000978
-170.000000000000 11.164657592773 0.120745390654 -0.999999 0.000978 0.000978
-170.000000000000 11.775725364685 3.260857343674 -0.999999 0.000978 0.000978
-170.000000000000 17.531536102295 5.808740139008 -0.999999 0.000978 0.000978
-170.000000000000 3.090114116669 2.361464500427 -0.999999 0.000978 0.000978
-170.000000000000 12.702237129211 5.210968494415 -0.999999 0.000978 0.000978
-170.000000000000 15.057385444641 5.772511959076 -0.999999 0.000978 0.000978
-170.000000000000 4.211689949036 3.210694551468 -0.999999 0.000978 0.000978
-170.000000000000 -0.233037948608 1.414561033249 -0.999999 0.000978 0.000978
-170.000000000000 8.824884414673 3.656422376633 -0.999999 0.000978 0.000978
-170.000000000000 21.424797058105 -6.233232975006 -0.999999 0.000978 0.000978
-170.000000000000 23.895969390869 -0.570341587067 -0.999999 0.000978 0.000978
-170.000000000000 24.424654006958 4.379637718201 -0.999999 0.000978 0.000978
-170.000000000000 22.952606201172 0.981505393982 -0.999999 0.000978 0.000978
-170.000000000000 23.136699676514 -3.183646678925 -0.999999 0.000978 0.000978
-170.000000000000 22.901552200317 1.608410835266 -0.999999 0.000978 0.000978
-170.000000000000 23.757595062256 0.468090057373 -0.999999 0.000978 0.000978
-170.000000000000 25.098880767822 -8.022253990173 -0.999999 0.000978 0.000978
-170.000000000000 26.208719253540 -2.212516784668 -0.999999 0.000978 0.000978
-170.000000000000 23.013002395630 1.704578399658 -0.999999 0.000978 0.000978
-170.000000000000 9.123250961304 3.587220191956 -0.999999 0.000978 0.000978
-170.000000000000 21.505756378174 -3.441148042679 -0.999999 0.000978 0.000978
-170.000000000000 24.343963623047 -7.188779830933 -0.999999 0.000978 0.000978
-170.000000000000 20.563510894775 1.633897066116 -0.999999 0.000978 0.000978
-170.000000000000 23.757656097412 6.077956199646 -0.999999 0.000978 0.000978
-170.000000000000 18.862186431885 3.155389785767 -0.999999 0.000978 0.000978
-170.000000000000 23.207635879517 6.852507114410 -0.999999 -0.000978 0.000978
-170.000000000000 5.755906581879 0.359299570322 -0.999999 0.000978 0.000978
-170.000000000000 20.840551376343 6.431336402893 -0.999999 0.000978 0.000978
-170.000000000000 14.900291442871 2.945831775665 -0.999999 0.000978 0.000978
-170.000000000000 13.206970214844 2.312444686890 -0.999999 0.000978 0.000978
-170.000000000000 0.001127719879 -4.609784126282 -0.999999 0.000978 0.000978
-170.000000000000 6.205247879028 -5.577250003815 -0.999999 0.000978 0.000978
-170.000000000000 17.222663879395 -8.603773117065 -0.999999 0.000978 0.000978
-170.000000000000 24.596988677979 -10.654895782471 -0.999999 0.000978 0.000978
-170.000000000000 5.968263149261 -6.300138473511 -0.999999 0.000978 0.000978
-170.000000000000 8.982378005981 -2.864848613739 -0.999999 0.000978 0.000978
-170.000000000000 9.765314102173 -1.210228681564 -0.999999 0.000978 0.000978
-170.000000000000 12.041036605835 -3.840897560120 -0.999999 0.000978 0.000978
-170.000000000000 12.561611175537 -5.124260425568 -0.999999 0.000978 0.000978
-170.000000000000 21.195148468018 -8.174850463867 -0.999999 0.000978 0.000978
-170.000000000000 17.954080581665 -6.671173095703 -0.999999 0.000978 0.000978
-170.000000000000 11.004024505615 -4.430255413055 -0.999999 0.000978 0.000978
-170.000000000000 17.325399398804 -5.431535720825 -0.999999 0.000978 0.000978
-88.018890380859 -23.510089874268 1.436406135559 0.000978 -0.999999 0.000978
-157.022964477539 -23.510089874268 1.003074169159 0.000978 -0.999999 0.000978
-164.223724365234 -23.510089874268 8.611223220825 0.000978 -0.999999 0.000978
76.434455871582 -23.510089874268 6.326081275940 0.000978 -0.999999 0.000978
-69.629722595215 -23.510089874268 4.308721542358 0.000978 -0.999999 0.000978
-137.149032592773 -23.510089874268 -0.555275917053 0.000978 -0.999999 0.000978
-127.122238159180 -23.510089874268 -1.642191886902 0.000978 -0.999999 0.000978
-94.824966430664 -23.510089874268 5.521759986877 0.000978 -0.999999 0.000978
-44.223922729492 -23.510089874268 -0.886230468750 0.000978 -0.999999 0.000978
-37.055099487305 -23.510089874268 -0.741827011108 0.000978 -0.999999 0.000978
20.743354797363 -23.510089874268 3.408965587616 0.000978 -0.999999 0.000978
152.186065673828 -23.510089874268 8.526479721069 0.000978 -0.999999 0.000978
-47.104827880859 -23.510089874268 2.203907966614 0.000978 -0.999999 0.000978
-106.254341125488 -23.510089874268 -2.171061515808 0.000978 -0.999999 0.000978
-157.615966796875 -23.510089874268 -8.909623146057 0.000978 -0.999999 0.000978
-73.157844543457 -23.510089874268 1.057421684265 0.000978 -0.999999 0.000978
81.024734497070 -23.510089874268 6.295042037964 0.000978 -0.999999 0.000978
-71.848640441895 -23.510089874268 1.745114326477 0.000978 -0.999999 0.000978
-31.386596679688 -23.510089874268 -2.926748275757 0.000978 -0.999999 0.000978
-54.829376220703 -23.510089874268 -1.201713562012 0.000978 -0.999999 0.000978
4.785888671875 -23.510089874268 2.355813980103 0.000978 -0.999999 0.000978
130.957504272461 -23.510089874268 8.358404159546 0.000978 -0.999999 0.000978
24.554168701172 -23.510089874268 2.617941856384 0.000978 -0.999999 0.000978
-165.789291381836 -23.510089874268 -2.465905189514 0.000978 -0.999999 0.000978
-78.860115051270 -23.510089874268 3.843189716339 0.000978 -0.999999 0.000978
-159.181823730469 -23.510089874268 -1.370648384094 0.000978 -0.999999 0.000978
61.770889282227 -23.510089874268 3.156832695007 0.000978 -0.999999 0.000978
-123.967796325684 -23.510089874268 3.235551357269 0.000978 -0.999999 0.000978
-33.523208618164 -23.510089874268 -1.451814651489 0.000978 -0.999999 0.000978
-58.341911315918 -23.510089874268 4.709809303284 0.000978 -0.999999 0.000978
-23.486732482910 -23.510089874268 1.827144145966 0.000978 -0.999999 0.000978
-103.644561767578 -23.510089874268 -0.537663459778 0.000978 -0.999999 0.000978
-35.979965209961 -23.510089874268 -3.158564567566 0.000978 -0.999999 0.000978
68.637123107910 -23.510089874268 4.829520225525 0.000978 -0.999999 0.000978
-85.098815917969 -23.510089874268 -5.768181800842 0.000978 -0.999999 0.000978
-33.653755187988 -23.510089874268 0.688960075378 0.000978 -0.999999 0.000978
-135.346023559570 -23.510089874268 0.220895767212 0.000978 -0.999999 0.000978
-52.805938720703 -23.510089874268 4.564900398254 0.000978 -0.999999 0.000978
42.924552917480 -23.510089874268 8.876173019409 0.000978 -0.999999 0.000978
-87.417846679688 -23.510089874268 7.306433200836 0.000978 -0.999999 0.000978
-157.719757080078 -23.510089874268 -7.775393486023 0.000978 -0.999999 0.000978
-2.848770141602 -23.510089874268 4.416838645935 0.000978 -0.999999 0.000978
-142.534667968750 -23.510089874268 5.953970909119 0.000978 -0.999999 0.000978
4.022903442383 -23.510089874268 -0.058134078979 0.000978 -0.999999 0.000978
-153.649780273438 -23.510089874268 -2.126929283142 0.000978 -0.999999 0.000978
-107.062019348145 -23.510089874268 3.731096267700 0.000978 -0.999999 0.000978
-149.371231079102 -23.510089874268 -9.217406272888 0.000978 -0.999999 0.000978
123.346786499023 -23.510089874268 7.867076873779 0.000978 -0.999999 0.000978
-164.758621215820 -23.510089874268 -0.684768676758 0.000978 -0.999999 0.000978
-18.815101623535 -23.510089874268 6.240673065186 0.000978 -0.999999 0.000978
52.089088439941 -23.510089874268 4.436428546906 0.000978 -0.999999 0.000978
-161.814331054688 -23.510089874268 2.201950550079 0.000978 -0.999999 0.000978
-123.081481933594 -23.510089874268 -6.619750976563 0.000978 -0.999999 0.000978
26.844657897949 -23.510089874268 3.273093223572 0.000978 -0.999999 0.000978
-2.296661376953 -23.510089874268 1.336535930634 0.000978 -0.999999 0.000978
31.072372436523 -23.510089874268 6.455894947052 0.000978 -0.999999 0.000978
4.462388992310 -23.510089874268 8.110216140747 0.000978 -0.999999 0.000978
-53.779525756836 -23.510089874268 3.502300262451 0.000978 -0.999999 0.000978
-122.476364135742 -23.510089874268 -6.541265487671 0.000978 -0.999999 0.000978
-113.249725341797 -23.510089874268 6.691179752350 0.000978 -0.999999 0.000978
7.716842651367 -23.510089874268 3.261115550995 0.000978 -0.999999 0.000978
8.566223144531 -23.510089874268 4.671036243439 0.000978 -0.999999 0.000978
-102.564010620117 -23.510089874268 -3.494670867920 0.000978 -0.999999 0.000978
-17.857131958008 -23.510089874268 0.667571067810 0.000978 -0.999999 0.000978
-61.220718383789 -23.510089874268 6.720973968506 0.000978 -0.999999 0.000978
128.179748535156 -23.510089874268 7.117419242859 0.000978 -0.999999 0.000978
-157.499542236328 -23.510089874268 -4.152031898499 0.000978 -0.999999 0.000978
-14.465385437012 -23.510089874268 4.463882923126 0.000978 -0.999999 0.000978
-153.431625366211 -23.510089874268 1.413809299469 0.000978 -0.999999 0.000978
-113.080978393555 -23.510089874268 5.386999130249 0.000978 -0.999999 0.000978
-2.047386169434 -23.510089874268 7.230231285095 0.000978 -0.999999 0.000978
-98.799377441406 -23.510089874268 -5.915261268616 0.000978 -0.999999 0.000978
-169.458099365234 -23.510089874268 -8.619271278381 0.000978 -0.999999 0.000978
12.933906555176 -23.510089874268 5.370079994202 0.000978 -0.999999 0.000978
-116.357147216797 -23.510089874268 5.238615036011 0.000978 -0.999999 0.000978
-58.844833374023 -23.510089874268 4.266936302185 0.000978 -0.999999 0.000978
-88.040298461914 -23.510089874268 1.082839012146 0.000978 -0.999999 0.000978
91.181167602539 -23.510089874268 5.298252105713 0.000978 -0.999999 0.000978
-97.836357116699 -23.510089874268 8.718504905701 0.000978 -0.999999 0.000978
-30.465744018555 -23.510089874268 -1.665393829346 0.000978 -0.999999 0.000978
-136.342742919922 -23.510089874268 -3.451045989990 0.000978 -0.999999 0.000978
27.142395019531 -23.510089874268 1.234266757965 0.000978 -0.999999 0.000978
-116.619781494141 -23.510089874268 5.286701202393 0.000978 -0.999999 0.000978
49.665920257568 -23.510089874268 7.514515876770 0.000978 -0.999999 0.000978
66.925735473633 -23.510089874268 5.420060157776 0.000978 -0.999999 0.000978
-151.510864257813 -23.510089874268 -4.493212699890 0.000978 -0.999999 0.000978
-101.116836547852 -23.510089874268 -6.998703002930 0.000978 -0.999999 0.000978
-48.731445312500 -23.510089874268 2.845706939697 0.000978 -0.999999 0.000978
128.778335571289 -23.510089874268 6.964555740356 0.000978 -0.999999 0.000978
-165.562713623047 -23.510089874268 4.657264709473 0.000978 -0.999999 0.000978
-127.171279907227 -23.510089874268 -7.879586219788 0.000978 -0.999999 0.000978
84.784439086914 -23.510089874268 3.976925849915 0.000978 -0.999999 0.000978
-32.270599365234 -23.510089874268 5.354032516479 0.000978 -0.999999 0.000978
-151.419860839844 -23.510089874268 -9.853329658508 0.000978 -0.999999 0.000978
-67.640785217285 -23.510089874268 1.038847923279 0.000978 -0.999999 0.000978
95.795356750488 -23.510089874268 8.151844978333 0.000978 -0.999999 0.000978
123.315429687500 -23.510089874268 8.583929061890 0.000978 -0.999999 0.000978
-148.401580810547 -23.510089874268 2.495166778564 0.000978 -0.999999 0.000978
25.627382278442 -23.510089874268 8.443588256836 0.000978 -0.999999 0.000978
74.471824645996 -23.510089874268 6.555361747742 0.000978 -0.999999 0.000978
21.570087432861 -23.510089874268 5.841765403748 0.000978 -0.999999 0.000978
-139.869293212891 -23.510089874268 -5.063645362854 0.000978 -0.999999 0.000978
-115.102882385254 -23.510089874268 -2.060281753540 0.000978 -0.999999 0.000978
-161.469024658203 -23.510089874268 -8.489603996277 0.000978 -0.999999 0.000978
-142.159790039063 -23.510089874268 7.350644111633 0.000978 -0.999999 0.000978
65.321693420410 -23.510089874268 3.159370422363 0.000978 -0.999999 0.000978
-84.091552734375 -23.510089874268 7.455469608307 0.000978 -0.999999 0.000978
-141.208740234375 -23.510089874268 4.281959533691 0.000978 -0.999999 0.000978
-15.978775024414 -23.510089874268 -0.243417739868 0.000978 -0.999999 0.000978
-5.329193115234 -23.510089874268 1.106430053711 0.000978 -0.999999 0.000978
-113.463424682617 -23.510089874268 -3.754996299744 0.000978 -0.999999 0.000978
-68.055358886719 -23.510089874268 -4.408729553223 0.000978 -0.999999 0.000978
27.924774169922 -23.510089874268 4.667153835297 0.000978 -0.999999 0.000978
-160.441131591797 -23.510089874268 -9.335127830505 0.000978 -0.999999 0.000978
-154.218353271484 -23.510089874268 7.573062896729 0.000978 -0.999999 0.000978
-59.947360992432 -23.510089874268 6.430271625519 0.000978 -0.999999 0.000978
-76.245384216309 -23.510089874268 7.497382164001 0.000978 -0.999999 0.000978
-146.183517456055 -23.510089874268 -5.052983283997 0.000978 -0.999999 0.000978
-129.104217529297 -23.510089874268 8.753887176514 0.000978 -0.999999 0.000978
4.420715332031 -23.510089874268 -0.345827102661 0.000978 -0.999999 0.000978
-34.860389709473 -23.510089874268 4.870185852051 0.000978 -0.999999 0.000978
6.550315856934 -23.510089874268 1.451857566833 0.000978 -0.999999 0.000978
30.718704223633 -23.510089874268 3.100941181183 0.000978 -0.999999 0.000978
-7.092681884766 -23.510089874268 0.046649932861 0.000978 -0.999999 0.000978
-115.494766235352 -23.510089874268 0.744582176208 0.000978 -0.999999 0.000978
-137.520690917969 -23.510089874268 -0.788033485413 0.000978 -0.999999 0.000978
92.262786865234 -23.510089874268 7.371427059174 0.000978 -0.999999 0.000978
-88.165161132813 -23.510089874268 7.099351882935 0.000978 -0.999999 0.000978
2.851608276367 -23.510089874268 6.575936317444 0.000978 -0.999999 0.000978
82.313407897949 -23.510089874268 4.145160198212 0.000978 -0.999999 0.000978
-126.559036254883 -23.510089874268 -8.138005256653 0.000978 -0.999999 0.000978
-58.079795837402 -23.510089874268 0.359219551086 0.000978 -0.999999 0.000978
-124.354492187500 -23.510089874268 7.610415458679 0.000978 -0.999999 0.000978
-106.817405700684 -23.510089874268 2.087072372437 0.000978 -0.999999 0.000978
-87.322372436523 -23.510089874268 -2.497247695923 0.000978 -0.999999 0.000978
-135.493469238281 -23.510089874268 -5.329330444336 0.000978 -0.999999 0.000978
-121.664718627930 -23.510089874268 -7.026783943176 0.000978 -0.999999 0.000978
-96.197647094727 -23.510089874268 -4.019783020020 0.000978 -0.999999 0.000978
0.233703613281 -23.510089874268 0.884160518646 0.000978 -0.999999 0.000978
-166.249298095703 -23.510089874268 5.855273723602 0.000978 -0.999999 0.000978
-109.666687011719 -23.510089874268 -5.452479362488 0.000978 -0.999999 0.000978
-71.956916809082 -23.510089874268 2.465017318726 0.000978 -0.999999 0.000978
154.517639160156 -23.510089874268 8.006431579590 0.000978 -0.999999 0.000978
-84.658843994141 -23.510089874268 -2.170249938965 0.000978 -0.999999 0.000978
-34.891056060791 -23.510089874268 6.511009216309 0.000978 -0.999999 0.000978
-137.564758300781 -23.510089874268 7.818028450012 0.000978 -0.999999 0.000978
-37.556419372559 -23.510089874268 3.770856857300 0.000978 -0.999999 0.000978
-92.829223632813 -23.510089874268 0.217526435852 0.000978 -0.999999 0.000978
-16.785400390625 -23.510089874268 4.056907653809 0.000978 -0.999999 0.000978
28.399875640869 -23.510089874268 7.039414882660 0.000978 -0.999999 0.000978
-40.104888916016 -23.510089874268 -1.638817787170 0.000978 -0.999999 0.000978
-114.077148437500 -23.510089874268 -5.873398780823 0.000978 -0.999999 0.000978
-24.162063598633 -23.510089874268 0.391413688660 0.000978 -0.999999 0.000978
51.380004882813 -23.510089874268 3.165210723877 0.000978 -0.999999 0.000978
-148.594818115234 -23.510089874268 -5.858103752136 0.000978 -0.999999 0.000978
-48.816040039063 -23.510089874268 1.327563285828 0.000978 -0.999999 0.000978
-22.050861358643 -23.510089874268 6.084776878357 0.000978 -0.999999 0.000978
-138.461639404297 -23.510089874268 1.614937782288 0.000978 -0.999999 0.000978
