//X Y Z Nx Ny Nz
622
-135.571075439453 17.854701995850 123.227508544922 0.052343 0.998629 0.001026
-131.052398681641 17.617889404297 125.116607666016 0.052343 0.998629 0.001026
89.676872253418 6.049960136414 11.881309509277 0.052343 0.998629 0.001026
-116.079063415527 16.833168029785 96.130058288574 0.052343 0.998629 0.001026
83.190811157227 6.389881610870 -17.726127624512 0.052343 0.998629 0.001026
12.213966369629 10.109616279602 85.464828491211 0.052343 0.998629 0.001026
-109.132362365723 16.469106674194 155.984619140625 0.052343 0.998629 0.001026
-142.703399658203 18.228487014771 148.401763916016 0.052343 0.998629 0.001026
23.063690185547 9.541009902954 16.487041473389 0.052343 0.998629 0.001026
-53.700401306152 13.564043045044 65.920555114746 0.052343 0.998629 0.001026
42.443191528320 8.525367736816 137.871994018555 0.052343 0.998629 0.001026
-163.770843505859 19.332586288452 163.916580200195 0.052343 0.998629 0.001026
-14.991325378418 11.535383224487 143.787429809570 0.052343 0.998629 0.001026
-18.963081359863 11.743535041809 126.544265747070 0.052343 0.998629 0.001026
93.153930664063 5.867735862732 7.122062683105 0.052343 0.998629 0.001026
30.369613647461 9.158123016357 1.067462921143 0.052343 0.998629 0.001026
-67.111824035645 14.266904830933 81.651245117188 0.052343 0.998629 0.001026
-8.330612182617 11.186313629150 25.685043334961 0.052343 0.998629 0.001026
109.622978210449 5.004625320435 108.029312133789 0.052343 0.998629 0.001026
-108.096351623535 16.414810180664 162.546569824219 0.052343 0.998629 0.001026
93.473663330078 5.850976943970 57.682525634766 0.052343 0.998629 0.001026
97.371551513672 5.646701812744 -44.380508422852 0.052343 0.998629 0.001026
116.767967224121 4.630174636841 53.976196289063 0.052343 0.998629 0.001026
-106.412635803223 16.326570510864 128.999847412109 0.052343 0.998629 0.001026
-142.924743652344 18.240087509155 164.030090332031 0.052343 0.998629 0.001026
118.492637634277 4.539787292480 74.756835937500 0.052343 0.998629 0.001026
-44.622688293457 13.088296890259 167.895019531250 0.052343 0.998629 0.001026
-82.378364562988 15.066987037659 175.709686279297 0.052343 0.998629 0.001026
115.884994506836 4.676448345184 76.849487304688 0.052343 0.998629 0.001026
-123.987968444824 17.247655868530 160.547866821289 0.052343 0.998629 0.001026
-194.245513916016 20.929697036743 175.700790405273 0.052343 0.998629 0.001026
-128.193511962891 17.468055725098 186.088562011719 0.052343 0.998629 0.001026
116.949142456055 4.620678424835 72.336318969727 0.052343 0.998629 0.001026
-23.133171081543 11.962081909180 46.368888854980 0.052343 0.998629 0.001026
78.170989990234 6.652953624725 132.335632324219 0.052343 0.998629 0.001026
-61.799217224121 13.988480567932 123.587882995605 0.052343 0.998629 0.001026
49.091247558594 8.176959037781 94.869712829590 0.052343 0.998629 0.001026
-160.727752685547 19.173107147217 154.798782348633 0.052343 0.998629 0.001026
40.912391662598 8.605598449707 35.616050720215 0.052343 0.998629 0.001026
35.745513916016 8.876380920410 89.358085632324 0.052343 0.998629 0.001026
34.654067993164 8.933581352234 61.425971984863 0.052343 0.998629 0.001026
82.297744750977 6.436684608459 -4.706977844238 0.052343 0.998629 0.001026
-69.589622497559 14.396758079529 136.125946044922 0.052343 0.998629 0.001026
-126.019340515137 17.354114532471 172.612136840820 0.052343 0.998629 0.001026
62.911800384521 7.452658176422 26.637542724609 0.052343 0.998629 0.001026
98.888275146484 5.567213058472 -28.509887695313 0.052343 0.998629 0.001026
47.766548156738 8.246383666992 99.722114562988 0.052343 0.998629 0.001026
39.035987854004 8.703938484192 -43.172641754150 0.052343 0.998629 0.001026
56.922630310059 7.766537666321 6.686073303223 0.052343 0.998629 0.001026
-128.099334716797 17.463121414185 174.751800537109 0.052343 0.998629 0.001026
112.859848022461 4.834989070892 89.523803710938 0.052343 0.998629 0.001026
-9.075675964355 11.225360870361 33.784286499023 0.052343 0.998629 0.001026
-81.055824279785 14.997677803040 108.975769042969 0.052343 0.998629 0.001026
46.942146301270 8.289590835571 52.170318603516 0.052343 0.998629 0.001026
-15.756996154785 11.575514793396 19.281263351440 0.052343 0.998629 0.001026
-24.301033020020 12.023284912109 132.277130126953 0.052343 0.998629 0.001026
-162.361480712891 19.258728027344 141.414291381836 0.052343 0.998629 0.001026
84.127571105957 6.340784549713 73.439819335938 0.052343 0.998629 0.001026
-163.923126220703 19.340568542480 151.482788085938 0.052343 0.998629 0.001026
-172.335479736328 19.781438827515 179.384033203125 0.052343 0.998629 0.001026
49.212783813477 8.170596122742 -37.233753204346 0.052343 0.998629 0.001026
57.312896728516 7.746078968048 144.317443847656 0.052343 0.998629 0.001026
-238.787628173828 23.264049530029 213.294357299805 0.052343 0.998629 0.001026
107.975769042969 5.090952396393 100.043106079102 0.052343 0.998629 0.001026
115.206718444824 4.712003231049 -113.024131774902 0.052343 0.998629 0.001026
106.557945251465 5.165261268616 10.121986389160 0.052343 0.998629 0.001026
-60.111747741699 13.900047302246 74.000709533691 0.052343 0.998629 0.001026
96.869316101074 5.673016071320 112.405075073242 0.052343 0.998629 0.001026
96.500129699707 5.692370891571 -43.935173034668 0.052343 0.998629 0.001026
64.780792236328 7.354711055756 -40.820037841797 0.052343 0.998629 0.001026
-44.991508483887 13.107625007629 163.128265380859 0.052343 0.998629 0.001026
-45.715385437012 13.145567893982 33.925830841064 0.052343 0.998629 0.001026
53.877777099609 7.926109790802 56.970848083496 0.052343 0.998629 0.001026
-13.521232604980 11.458343505859 41.933872222900 0.052343 0.998629 0.001026
-8.248619079590 11.182018280029 3.203575134277 0.052343 0.998629 0.001026
-101.103126525879 16.048311233521 110.445373535156 0.052343 0.998629 0.001026
70.973281860352 7.030174732208 -11.225158691406 0.052343 0.998629 0.001026
-80.713829040527 14.979755401611 101.227294921875 0.052343 0.998629 0.001026
-35.836204528809 12.627817153931 139.826385498047 0.052343 0.998629 0.001026
23.403327941895 9.523210525513 12.912399291992 0.052343 0.998629 0.001026
69.056549072266 7.130627155304 -29.786254882813 0.052343 0.998629 0.001026
83.824615478516 6.356659889221 118.812606811523 0.052343 0.998629 0.001026
104.075256347656 5.295378684998 -114.013519287109 0.052343 0.998629 0.001026
0.077560424805 10.745655059814 159.023986816406 0.052343 0.998629 0.001026
58.279556274414 7.695424556732 1.158332824707 0.052343 0.998629 0.001026
-160.424804687500 19.157230377197 143.100891113281 0.052343 0.998629 0.001026
-41.004020690918 12.898651123047 132.281433105469 0.052343 0.998629 0.001026
17.581367492676 9.828324317932 49.021217346191 0.052343 0.998629 0.001026
-102.159156799316 16.103656768799 114.382156372070 0.052343 0.998629 0.001026
-161.642272949219 19.221033096313 180.742477416992 0.052343 0.998629 0.001026
103.978454589844 5.300443649292 71.589118957520 0.052343 0.998629 0.001026
-196.307067871094 21.037738800049 184.682006835938 0.052343 0.998629 0.001026
36.799377441406 8.821149826050 94.180198669434 0.052343 0.998629 0.001026
35.060287475586 8.912293434143 47.793327331543 0.052343 0.998629 0.001026
-161.632324218750 19.220512390137 158.654968261719 0.052343 0.998629 0.001026
7.870147705078 10.337270736694 -25.342828750610 0.052343 0.998629 0.001026
-167.438812255859 19.524816513062 199.677474975586 0.052343 0.998629 0.001026
-129.186859130859 17.520114898682 187.415557861328 0.052343 0.998629 0.001026
3.609580993652 10.560551643372 107.968368530273 0.052343 0.998629 0.001026
-45.158195495605 13.116364479065 71.429611206055 0.052343 0.998629 0.001026
-128.999633789063 17.510305404663 144.360656738281 0.052343 0.998629 0.001026
-183.355316162109 20.358966827393 164.348495483398 0.052343 0.998629 0.001026
108.704360961914 5.052769660950 76.472488403320 0.052343 0.998629 0.001026
-46.454780578613 13.184311866760 162.255310058594 0.052343 0.998629 0.001026
16.328987121582 9.893959999084 42.173690795898 0.052343 0.998629 0.001026
21.880096435547 9.603037834167 22.330070495605 0.052343 0.998629 0.001026
-23.880439758301 12.001243591309 104.181755065918 0.052343 0.998629 0.001026
39.421127319336 8.683753013611 6.126712799072 0.052343 0.998629 0.001026
10.865676879883 10.180276870728 118.695800781250 0.052343 0.998629 0.001026
-106.442695617676 16.328145980835 109.558174133301 0.052343 0.998629 0.001026
-75.008796691895 14.680764198303 178.369750976563 0.052343 0.998629 0.001026
59.478561401367 7.632588863373 -40.902198791504 0.052343 0.998629 0.001026
16.307052612305 9.895111083984 -32.684677124023 0.052343 0.998629 0.001026
109.507438659668 5.010683059692 42.607635498047 0.052343 0.998629 0.001026
-104.918739318848 16.248277664185 171.111968994141 0.052343 0.998629 0.001026
102.170257568359 5.395211219788 -19.932167053223 0.052343 0.998629 0.001026
-191.203582763672 20.770277023315 172.638290405273 0.052343 0.998629 0.001026
115.325607299805 4.705769538879 -53.026527404785 0.052343 0.998629 0.001026
-43.279411315918 13.017901420593 61.350170135498 0.052343 0.998629 0.001026
-28.304130554199 12.233080863953 75.977432250977 0.052343 0.998629 0.001026
24.637413024902 9.458531379700 65.438079833984 0.052343 0.998629 0.001026
85.261604309082 6.281354427338 30.261566162109 0.052343 0.998629 0.001026
-1.427650451660 10.824540138245 157.183670043945 0.052343 0.998629 0.001026
22.510238647461 9.570014953613 15.555965423584 0.052343 0.998629 0.001026
22.198463439941 9.586353302002 35.996604919434 0.052343 0.998629 0.001026
47.760475158691 8.246705055237 26.570587158203 0.052343 0.998629 0.001026
-149.369964599609 18.577867507935 159.376831054688 0.052343 0.998629 0.001026
111.418579101563 4.910530567169 -101.880844116211 0.052343 0.998629 0.001026
-154.732482910156 18.858909606934 141.408569335938 0.052343 0.998629 0.001026
-86.855262756348 15.301611900330 157.610809326172 0.052343 0.998629 0.001026
-64.120109558105 14.110115051270 111.566535949707 0.052343 0.998629 0.001026
7.100196838379 10.377615928650 141.856781005859 0.052343 0.998629 0.001026
-72.733222961426 14.561507225037 177.282485961914 0.052343 0.998629 0.001026
5.815856933594 10.444925308228 118.436683654785 0.052343 0.998629 0.001026
12.402450561523 10.099742889404 -28.296590805054 0.052343 0.998629 0.001026
-171.823883056641 19.754627227783 192.221435546875 0.052343 0.998629 0.001026
23.914466857910 9.496419906616 49.209350585938 0.052343 0.998629 0.001026
28.625778198242 9.249510765076 78.061782836914 0.052343 0.998629 0.001026
84.646484375000 6.313595771790 -92.563591003418 0.052343 0.998629 0.001026
1.005065917969 10.697052001953 35.325035095215 0.052343 0.998629 0.001026
115.062057495117 4.719578266144 28.957778930664 0.052343 0.998629 0.001026
-5.538803100586 11.039999961853 73.380729675293 0.052343 0.998629 0.001026
-95.680137634277 15.764103889465 162.906768798828 0.052343 0.998629 0.001026
76.106597900391 6.761143684387 116.128913879395 0.052343 0.998629 0.001026
-93.884040832520 15.669975280762 143.713806152344 0.052343 0.998629 0.001026
-121.799354553223 17.132955551147 144.514648437500 0.052343 0.998629 0.001026
-116.857429504395 16.873962402344 110.503608703613 0.052343 0.998629 0.001026
67.060729980469 7.235223770142 -29.637702941895 0.052343 0.998629 0.001026
-179.824371337891 20.173917770386 173.309020996094 0.052343 0.998629 0.001026
32.672096252441 9.037455558777 -18.349121093750 0.052343 0.998629 0.001026
-110.000267028809 16.514591217041 116.318695068359 0.052343 0.998629 0.001026
24.171897888184 9.482925415039 153.281158447266 0.052343 0.998629 0.001026
95.165420532227 5.762317180634 25.089401245117 0.052343 0.998629 0.001026
-5.840538024902 11.055815696716 8.537132263184 0.052343 0.998629 0.001026
117.666160583496 4.583106517792 -52.816528320313 0.052343 0.998629 0.001026
69.553131103516 7.104596614838 110.074378967285 0.052343 0.998629 0.001026
110.431213378906 4.962274551392 -66.213531494141 0.052343 0.998629 0.001026
-63.242530822754 14.064125061035 62.358783721924 0.052343 0.998629 0.001026
98.928680419922 5.565096378326 -60.165981292725 0.052343 0.998629 0.001026
-125.884117126465 17.347030639648 117.517074584961 0.052343 0.998629 0.001026
84.136070251465 6.340345382690 -77.373474121094 0.052343 0.998629 0.001026
51.539062500000 8.048673629761 114.346687316895 0.052343 0.998629 0.001026
-73.711235046387 14.612762451172 149.432601928711 0.052343 0.998629 0.001026
-24.286537170410 12.022524833679 114.949348449707 0.052343 0.998629 0.001026
97.114395141602 5.660175323486 39.711357116699 0.052343 0.998629 0.001026
37.064544677734 8.807258605957 -46.704887390137 0.052343 0.998629 0.001026
-39.128257751465 12.800350189209 33.624008178711 0.052343 0.998629 0.001026
51.126487731934 8.070299148560 37.225074768066 0.052343 0.998629 0.001026
42.813407897949 8.505972862244 -44.472423553467 0.052343 0.998629 0.001026
21.852592468262 9.604480743408 11.395553588867 0.052343 0.998629 0.001026
-72.891380310059 14.569799423218 77.132308959961 0.052343 0.998629 0.001026
14.539405822754 9.987747192383 35.899291992188 0.052343 0.998629 0.001026
-110.799812316895 16.556491851807 164.977478027344 0.052343 0.998629 0.001026
20.227821350098 9.689628601074 82.701385498047 0.052343 0.998629 0.001026
109.555877685547 5.008144378662 45.759338378906 0.052343 0.998629 0.001026
45.575416564941 8.361214637756 147.529647827148 0.052343 0.998629 0.001026
106.225173950195 5.182698249817 63.438140869141 0.052343 0.998629 0.001026
5.934822082520 10.438696861267 -18.612070083618 0.052343 0.998629 0.001026
-81.644615173340 15.028534889221 129.404052734375 0.052343 0.998629 0.001026
40.925994873047 8.604888916016 -53.223857879639 0.052343 0.998629 0.001026
70.078811645508 7.077049255371 59.066955566406 0.052343 0.998629 0.001026
32.055686950684 9.069761276245 -44.970401763916 0.052343 0.998629 0.001026
33.816566467285 8.977471351624 102.611892700195 0.052343 0.998629 0.001026
-138.527282714844 18.009628295898 139.298675537109 0.052343 0.998629 0.001026
-142.048095703125 18.194149017334 129.173156738281 0.052343 0.998629 0.001026
2.911407470703 10.597142219543 99.462722778320 0.052343 0.998629 0.001026
-99.793159484863 15.979660034180 123.707168579102 0.052343 0.998629 0.001026
47.793777465820 8.244960784912 15.482170104980 0.052343 0.998629 0.001026
57.248889923096 7.749437808990 39.254798889160 0.052343 0.998629 0.001026
16.811111450195 9.868692398071 0.828376770020 0.052343 0.998629 0.001026
39.488685607910 8.680211067200 36.403839111328 0.052343 0.998629 0.001026
-238.212570190430 23.233909606934 211.271118164063 0.052343 0.998629 0.001026
-162.019256591797 19.240789413452 137.865539550781 0.052343 0.998629 0.001026
-106.378967285156 16.324808120728 83.495666503906 0.052343 0.998629 0.001026
-213.810028076172 21.955028533936 186.739898681641 0.052343 0.998629 0.001026
97.909072875977 5.618535995483 -113.458648681641 0.052343 0.998629 0.001026
-7.167068481445 11.125336647034 -12.466278076172 0.052343 0.998629 0.001026
-243.093688964844 23.489717483521 213.476821899414 0.052343 0.998629 0.001026
-255.017486572266 24.114629745483 -90.231872558594 0.052343 0.998629 0.001026
-252.968170166016 24.007221221924 76.973220825195 0.052343 0.998629 0.001026
-253.271316528320 24.023122787476 -207.010009765625 0.052343 0.998629 0.001026
-252.426132202148 23.978815078735 96.878463745117 0.052343 0.998629 0.001026
-251.830459594727 23.947608947754 -172.296585083008 0.052343 0.998629 0.001026
-248.695297241211 23.783300399780 -118.591682434082 0.052343 0.998629 0.001026
-250.314758300781 23.868171691895 -108.726394653320 0.052343 0.998629 0.001026
-246.466278076172 23.666486740112 -208.419525146484 0.052343 0.998629 0.001026
-252.145599365234 23.964120864868 -59.481590270996 0.052343 0.998629 0.001026
-252.233795166016 23.968744277954 -100.610794067383 0.052343 0.998629 0.001026
-250.996063232422 23.903871536255 24.237371444702 0.052343 0.998629 0.001026
-254.493515014648 24.087165832520 11.765747070313 0.052343 0.998629 0.001026
-248.583190917969 23.777429580688 -192.304107666016 0.052343 0.998629 0.001026
-249.849395751953 23.843788146973 -198.401489257813 0.052343 0.998629 0.001026
-249.264602661133 23.813135147095 -98.694274902344 0.052343 0.998629 0.001026
-246.924804687500 23.690513610840 -148.803466796875 0.052343 0.998629 0.001026
-247.890930175781 23.741144180298 -130.556289672852 0.052343 0.998629 0.001026
-253.494934082031 24.034841537476 -194.116760253906 0.052343 0.998629 0.001026
-246.359436035156 23.660884857178 -188.992187500000 0.052343 0.998629 0.001026
-246.621917724609 23.674640655518 -175.198699951172 0.052343 0.998629 0.001026
-245.214416503906 23.600879669189 -211.195846557617 0.052343 0.998629 0.001026
-252.594329833984 23.987640380859 -148.830108642578 0.052343 0.998629 0.001026
-238.596389770508 23.254045486450 -204.704345703125 0.052343 0.998629 0.001026
112.165313720703 4.871397018433 -130.234878540039 0.052343 0.998629 0.001026
17.542491912842 9.830368041992 -117.069625854492 0.052343 0.998629 0.001026
-187.100173950195 20.555242538452 -202.233337402344 0.052343 0.998629 0.001026
-70.450256347656 14.441865921021 34.776275634766 0.052343 0.998629 0.001026
-72.858764648438 14.568093299866 -25.232887268066 0.052343 0.998629 0.001026
-180.696960449219 20.219654083252 -37.608947753906 0.052343 0.998629 0.001026
-142.585784912109 18.222335815430 -125.813812255859 0.052343 0.998629 0.001026
50.266654968262 8.115367889404 -120.758293151855 0.052343 0.998629 0.001026
-52.271308898926 13.489155769348 -128.786209106445 0.052343 0.998629 0.001026
-142.039459228516 18.193704605103 -86.473648071289 0.052343 0.998629 0.001026
-111.552856445313 16.595964431763 -5.710662841797 0.052343 0.998629 0.001026
-15.130950927734 11.542712211609 -133.224700927734 0.052343 0.998629 0.001026
-129.812042236328 17.552894592285 -140.564987182617 0.052343 0.998629 0.001026
-244.936737060547 23.586311340332 94.269592285156 0.052343 0.998629 0.001026
-180.723480224609 20.221046447754 -40.338485717773 0.052343 0.998629 0.001026
-76.098365783691 14.737876892090 -71.522293090820 0.052343 0.998629 0.001026
-149.556335449219 18.587638854980 79.077713012695 0.052343 0.998629 0.001026
-59.808868408203 13.884178161621 -59.160423278809 0.052343 0.998629 0.001026
-141.578002929688 18.169517517090 -47.559333801270 0.052343 0.998629 0.001026
-109.261421203613 16.475877761841 -72.589057922363 0.052343 0.998629 0.001026
-203.576965332031 21.418746948242 -50.483299255371 0.052343 0.998629 0.001026
-103.174171447754 16.156860351563 -95.375305175781 0.052343 0.998629 0.001026
-21.092689514160 11.855148315430 -12.423332214355 0.052343 0.998629 0.001026
-212.711517333984 21.897459030151 115.419021606445 0.052343 0.998629 0.001026
-187.604095458984 20.581645965576 -103.575569152832 0.052343 0.998629 0.001026
-161.497955322266 19.213476181030 -13.800994873047 0.052343 0.998629 0.001026
-87.401428222656 15.330242156982 -43.477363586426 0.052343 0.998629 0.001026
-0.004558563232 10.749970436096 -121.501235961914 0.052343 0.998629 0.001026
-189.954345703125 20.704809188843 42.554626464844 0.052343 0.998629 0.001026
-131.225875854492 17.626991271973 -152.690139770508 0.052343 0.998629 0.001026
-171.061706542969 19.714685440063 100.143035888672 0.052343 0.998629 0.001026
-179.213409423828 20.141910552979 -119.593574523926 0.052343 0.998629 0.001026
-229.452423095703 22.774814605713 70.264373779297 0.052343 0.998629 0.001026
-73.335784912109 14.593091964722 18.741546630859 0.052343 0.998629 0.001026
91.021804809570 5.979482173920 -140.150146484375 0.052343 0.998629 0.001026
-222.863952636719 22.429531097412 -33.980758666992 0.052343 0.998629 0.001026
-181.073547363281 20.239387512207 23.148742675781 0.052343 0.998629 0.001026
-156.235061645508 18.937656402588 72.840454101563 0.052343 0.998629 0.001026
-233.041534423828 22.962913513184 69.658111572266 0.052343 0.998629 0.001026
-115.420425415039 16.798656463623 -31.337791442871 0.052343 0.998629 0.001026
-230.188858032227 22.813405990601 159.581451416016 0.052343 0.998629 0.001026
-126.693679809570 17.389465332031 -97.785957336426 0.052343 0.998629 0.001026
-84.364807128906 15.171102523804 -71.494499206543 0.052343 0.998629 0.001026
35.144004821777 8.907913208008 -129.744476318359 0.052343 0.998629 0.001026
-198.221374511719 21.138074874878 -131.957565307617 0.052343 0.998629 0.001026
-130.617431640625 17.595104217529 -188.062866210938 0.052343 0.998629 0.001026
-227.137329101563 22.653484344482 97.993774414063 0.052343 0.998629 0.001026
-85.971122741699 15.255285263062 -63.907836914063 0.052343 0.998629 0.001026
-120.687927246094 17.074710845947 22.390823364258 0.052343 0.998629 0.001026
-233.687438964844 22.996757507324 174.638671875000 0.052343 0.998629 0.001026
-153.540481567383 18.796449661255 -155.324295043945 0.052343 0.998629 0.001026
-228.035461425781 22.700565338135 -118.036308288574 0.052343 0.998629 0.001026
-142.165863037109 18.200328826904 -136.115036010742 0.052343 0.998629 0.001026
-237.790481567383 23.211788177490 170.349273681641 0.052343 0.998629 0.001026
-163.626449584961 19.325031280518 -114.653953552246 0.052343 0.998629 0.001026
-241.653259277344 23.414237976074 2.729064941406 0.052343 0.998629 0.001026
-83.002059936523 15.099679946899 14.279281616211 0.052343 0.998629 0.001026
-136.083557128906 17.881565093994 -26.957595825195 0.052343 0.998629 0.001026
-128.428771972656 17.480401992798 -167.920013427734 0.052343 0.998629 0.001026
-137.700164794922 17.966285705566 -12.916763305664 0.052343 0.998629 0.001026
-117.769683837891 16.921775817871 -11.793685913086 0.052343 0.998629 0.001026
-226.891647338867 22.640607833862 111.949401855469 0.052343 0.998629 0.001026
-139.077560424805 18.038473129272 -7.131439208984 0.052343 0.998629 0.001026
-23.070503234863 11.958801269531 -47.807914733887 0.052343 0.998629 0.001026
-96.343803405762 15.798890113831 21.260620117188 0.052343 0.998629 0.001026
-75.839096069336 14.724290847778 -113.855834960938 0.052343 0.998629 0.001026
-238.484024047852 23.248153686523 -180.314361572266 0.052343 0.998629 0.001026
-179.980545043945 20.182104110718 88.034118652344 0.052343 0.998629 0.001026
-234.866180419922 23.058536529541 102.971893310547 0.052343 0.998629 0.001026
16.987215042114 9.859469413757 -126.848655700684 0.052343 0.998629 0.001026
-9.181739807129 11.230922698975 -34.392631530762 0.052343 0.998629 0.001026
-134.490722656250 17.798086166382 -6.509262084961 0.052343 0.998629 0.001026
-26.118915557861 12.118566513062 -127.640304565430 0.052343 0.998629 0.001026
-127.735244750977 17.444042205811 88.026351928711 0.052343 0.998629 0.001026
-11.046562194824 11.328653335571 -34.380058288574 0.052343 0.998629 0.001026
4.498855590820 10.513957977295 -130.703094482422 0.052343 0.998629 0.001026
-60.730560302734 13.932483673096 -71.613189697266 0.052343 0.998629 0.001026
-114.667495727539 16.759195327759 12.853378295898 0.052343 0.998629 0.001026
-239.364074707031 23.294273376465 -140.929290771484 0.052343 0.998629 0.001026
-208.203948974609 21.661241531372 -153.064392089844 0.052343 0.998629 0.001026
42.522300720215 8.521231651306 -118.333297729492 0.052343 0.998629 0.001026
-231.886749267578 22.902397155762 -24.370681762695 0.052343 0.998629 0.001026
22.522216796875 9.569394111633 -146.639083862305 0.052343 0.998629 0.001026
-45.146415710449 13.115755081177 -113.152206420898 0.052343 0.998629 0.001026
-174.790878295898 19.910129547119 -0.278884887695 0.052343 0.998629 0.001026
18.298816680908 9.790731430054 -136.012603759766 0.052343 0.998629 0.001026
-227.547500610352 22.674993515015 -124.635406494141 0.052343 0.998629 0.001026
-181.828125000000 20.278938293457 -66.274147033691 0.052343 0.998629 0.001026
-212.550582885742 21.889039993286 -168.583740234375 0.052343 0.998629 0.001026
-24.430839538574 12.030094146729 -32.020523071289 0.052343 0.998629 0.001026
-123.993431091309 17.247947692871 -31.695472717285 0.052343 0.998629 0.001026
-66.732589721680 14.247034072876 -33.173683166504 0.052343 0.998629 0.001026
-26.565422058105 12.141963005066 -52.827545166016 0.052343 0.998629 0.001026
63.174949645996 7.438873767853 -140.599243164063 0.052343 0.998629 0.001026
-151.891708374023 18.710037231445 -80.859718322754 0.052343 0.998629 0.001026
-7.253584861755 11.129878044128 -149.455383300781 0.052343 0.998629 0.001026
-183.963623046875 20.390846252441 64.333007812500 0.052343 0.998629 0.001026
-136.021881103516 17.878337860107 -139.245605468750 0.052343 0.998629 0.001026
-87.045417785645 15.311584472656 -20.644317626953 0.052343 0.998629 0.001026
-84.230667114258 15.164072036743 -61.194587707520 0.052343 0.998629 0.001026
-96.743766784668 15.819859504700 -141.734985351563 0.052343 0.998629 0.001026
-122.364288330078 17.162565231323 30.480438232422 0.052343 0.998629 0.001026
-120.780487060547 17.079570770264 -151.997558593750 0.052343 0.998629 0.001026
-224.973617553711 22.540092468262 56.456787109375 0.052343 0.998629 0.001026
-162.537567138672 19.267959594727 -33.318725585938 0.052343 0.998629 0.001026
-99.441619873047 15.961237907410 57.656173706055 0.052343 0.998629 0.001026
-242.395751953125 23.453151702881 -69.052299499512 0.052343 0.998629 0.001026
-173.540222167969 19.844589233398 -85.934692382813 0.052343 0.998629 0.001026
-235.392364501953 23.086124420166 -127.209579467773 0.052343 0.998629 0.001026
-133.415039062500 17.741710662842 26.285949707031 0.052343 0.998629 0.001026
-208.441604614258 21.673690795898 -70.067718505859 0.052343 0.998629 0.001026
7.638004302979 10.349440574646 -125.325027465820 0.052343 0.998629 0.001026
-81.217361450195 15.006147384644 34.615249633789 0.052343 0.998629 0.001026
-182.828521728516 20.331369400024 -149.556106567383 0.052343 0.998629 0.001026
-216.918029785156 22.117929458618 -209.392562866211 0.052343 0.998629 0.001026
-182.192962646484 20.298057556152 -20.625350952148 0.052343 0.998629 0.001026
-214.173797607422 21.974096298218 59.488433837891 0.052343 0.998629 0.001026
-179.953353881836 20.180675506592 101.592819213867 0.052343 0.998629 0.001026
-106.156127929688 16.313138961792 -123.703659057617 0.052343 0.998629 0.001026
-140.339599609375 18.104616165161 -71.430488586426 0.052343 0.998629 0.001026
-188.434417724609 20.625158309937 -46.027992248535 0.052343 0.998629 0.001026
-212.791290283203 21.901647567749 -30.953445434570 0.052343 0.998629 0.001026
46.299755096436 8.323264122009 -116.305824279785 0.052343 0.998629 0.001026
-110.098083496094 16.519729614258 -156.822280883789 0.052343 0.998629 0.001026
-154.996337890625 18.872741699219 -33.773910522461 0.052343 0.998629 0.001026
-173.946731567383 19.865896224976 -165.418365478516 0.052343 0.998629 0.001026
-251.753204345703 23.943546295166 141.973861694336 0.052343 0.998629 0.001026
-171.519622802734 19.738695144653 -137.050476074219 0.052343 0.998629 0.001026
-86.361381530762 15.275739669800 -94.335372924805 0.052343 0.998629 0.001026
-194.249847412109 20.929929733276 19.181091308594 0.052343 0.998629 0.001026
-52.081481933594 13.479208946228 -166.282455444336 0.052343 0.998629 0.001026
-224.263549804688 22.502885818481 -94.767929077148 0.052343 0.998629 0.001026
-224.044738769531 22.491416931152 -41.924499511719 0.052343 0.998629 0.001026
-207.733184814453 21.636554718018 138.244308471680 0.052343 0.998629 0.001026
-67.090843200684 14.265811920166 -67.087951660156 0.052343 0.998629 0.001026
43.717918395996 8.458573341370 -125.218963623047 0.052343 0.998629 0.001026
-238.229400634766 23.234794616699 130.587051391602 0.052343 0.998629 0.001026
-221.100616455078 22.337112426758 143.331085205078 0.052343 0.998629 0.001026
-24.891578674316 12.054242134094 -80.089279174805 0.052343 0.998629 0.001026
-101.355934143066 16.061567306519 -38.308883666992 0.052343 0.998629 0.001026
-9.722267150879 11.259255409241 -141.931564331055 0.052343 0.998629 0.001026
-18.009752273560 11.693583488464 -130.741210937500 0.052343 0.998629 0.001026
-136.469390869141 17.901794433594 -190.586212158203 0.052343 0.998629 0.001026
-187.049179077148 20.552564620972 -157.686706542969 0.052343 0.998629 0.001026
38.288173675537 8.743132591248 -90.566421508789 0.052343 0.998629 0.001026
-27.534927368164 12.192775726318 -85.814414978027 0.052343 0.998629 0.001026
-56.631652832031 13.717670440674 -107.097267150879 0.052343 0.998629 0.001026
-103.662567138672 16.182456970215 -114.959503173828 0.052343 0.998629 0.001026
-194.887023925781 20.963325500488 -59.943542480469 0.052343 0.998629 0.001026
-76.521163940430 14.760039329529 -172.564208984375 0.052343 0.998629 0.001026
-203.287811279297 21.403583526611 151.305343627930 0.052343 0.998629 0.001026
-166.620422363281 19.481925964355 117.546630859375 0.052343 0.998629 0.001026
64.067176818848 7.392111778259 -90.914688110352 0.052343 0.998629 0.001026
8.301208496094 10.314681053162 -60.880363464355 0.052343 0.998629 0.001026
-47.669281005859 13.247971534729 -87.488235473633 0.052343 0.998629 0.001026
37.843173980713 8.766454696655 -107.951667785645 0.052343 0.998629 0.001026
-154.945556640625 18.870079040527 -3.750900268555 0.052343 0.998629 0.001026
-99.780212402344 15.978984832764 9.917877197266 0.052343 0.998629 0.001026
-31.120742797852 12.380701065063 -124.247955322266 0.052343 0.998629 0.001026
-240.778274536133 23.368373870850 165.574279785156 0.052343 0.998629 0.001026
-54.509704589844 13.606458663940 11.936782836914 0.052343 0.998629 0.001026
-164.891937255859 19.391351699829 -87.889724731445 0.052343 0.998629 0.001026
-217.315795898438 22.138763427734 14.961166381836 0.052343 0.998629 0.001026
-212.525848388672 21.887741088867 -106.238410949707 0.052343 0.998629 0.001026
-161.327590942383 19.204547882080 -22.904937744141 0.052343 0.998629 0.001026
-236.970275878906 23.168815612793 -38.527648925781 0.052343 0.998629 0.001026
-5.033256530762 11.013512611389 -92.504646301270 0.052343 0.998629 0.001026
-245.152770996094 23.597637176514 67.007247924805 0.052343 0.998629 0.001026
-200.609558105469 21.263231277466 -87.228248596191 0.052343 0.998629 0.001026
-113.784591674805 16.712932586670 -150.206695556641 0.052343 0.998629 0.001026
-170.836959838867 19.702905654907 130.297073364258 0.052343 0.998629 0.001026
-206.818389892578 21.588619232178 -19.348968505859 0.052343 0.998629 0.001026
23.234657287598 9.532054901123 -111.972763061523 0.052343 0.998629 0.001026
-184.392761230469 20.413337707520 67.907562255859 0.052343 0.998629 0.001026
-145.672851562500 18.384120941162 -76.598907470703 0.052343 0.998629 0.001026
33.502655029297 8.993929862976 -78.993774414063 0.052343 0.998629 0.001026
-120.810813903809 17.081159591675 -139.028686523438 0.052343 0.998629 0.001026
-118.044235229492 16.936161041260 40.155029296875 0.052343 0.998629 0.001026
-92.092643737793 15.576095581055 24.016265869141 0.052343 0.998629 0.001026
-62.812030792236 14.041570663452 -117.679122924805 0.052343 0.998629 0.001026
-222.634796142578 22.417522430420 -43.347885131836 0.052343 0.998629 0.001026
-67.129180908203 14.267820358276 -76.963279724121 0.052343 0.998629 0.001026
-151.281448364258 18.678049087524 33.273681640625 0.052343 0.998629 0.001026
-174.629364013672 19.901674270630 -192.609344482422 0.052343 0.998629 0.001026
-50.411163330078 13.391671180725 -156.749908447266 0.052343 0.998629 0.001026
-31.383281707764 12.394460678101 -135.966903686523 0.052343 0.998629 0.001026
12.287715911865 10.105759620667 -117.072647094727 0.052343 0.998629 0.001026
-66.318771362305 14.225351333618 -97.048660278320 0.052343 0.998629 0.001026
60.124706268311 7.598729610443 -130.354644775391 0.052343 0.998629 0.001026
-112.284698486328 16.634326934814 -175.487670898438 0.052343 0.998629 0.001026
-238.855590820313 23.267614364624 113.481109619141 0.052343 0.998629 0.001026
-247.586212158203 23.725170135498 14.195693969727 0.052343 0.998629 0.001026
-207.733230590820 21.636569976807 -147.946395874023 0.052343 0.998629 0.001026
-233.834991455078 23.004501342773 -86.461791992188 0.052343 0.998629 0.001026
-225.009124755859 22.541957855225 -34.423782348633 0.052343 0.998629 0.001026
45.026500701904 8.389993667603 -139.636199951172 0.052343 0.998629 0.001026
-123.673904418945 17.231208801270 -153.407699584961 0.052343 0.998629 0.001026
-218.838470458984 22.218561172485 96.309204101563 0.052343 0.998629 0.001026
-153.753540039063 18.807613372803 -90.850036621094 0.052343 0.998629 0.001026
-230.026992797852 22.804941177368 -210.064910888672 0.052343 0.998629 0.001026
-239.420562744141 23.297225952148 38.553695678711 0.052343 0.998629 0.001026
-51.814147949219 13.465192794800 -55.078147888184 0.052343 0.998629 0.001026
-163.032058715820 19.293882369995 -173.475738525391 0.052343 0.998629 0.001026
-132.665985107422 17.702465057373 -191.816131591797 0.052343 0.998629 0.001026
30.415351867676 9.155730247498 -113.956199645996 0.052343 0.998629 0.001026
-143.755508422852 18.283632278442 20.033157348633 0.052343 0.998629 0.001026
-162.985687255859 19.291439056396 120.001724243164 0.052343 0.998629 0.001026
-21.819107055664 11.893218040466 -23.777664184570 0.052343 0.998629 0.001026
-76.605987548828 14.764482498169 -135.402038574219 0.052343 0.998629 0.001026
-235.368133544922 23.084850311279 -54.005615234375 0.052343 0.998629 0.001026
-48.397239685059 13.286118507385 -0.739669799805 0.052343 0.998629 0.001026
87.328308105469 6.173048496246 -115.888259887695 0.052343 0.998629 0.001026
-135.621261596680 17.857339859009 -92.791389465332 0.052343 0.998629 0.001026
-222.233734130859 22.396495819092 129.884429931641 0.052343 0.998629 0.001026
78.924041748047 6.613497734070 -118.841812133789 0.052343 0.998629 0.001026
-246.306518554688 23.658107757568 -73.138137817383 0.052343 0.998629 0.001026
-194.911926269531 20.964633941650 -118.851097106934 0.052343 0.998629 0.001026
-186.177062988281 20.506851196289 51.121200561523 0.052343 0.998629 0.001026
-28.587837219238 12.247951507568 -7.083297729492 0.052343 0.998629 0.001026
5.590224266052 10.456762313843 -143.044906616211 0.052343 0.998629 0.001026
-204.583404541016 21.471492767334 -91.824867248535 0.052343 0.998629 0.001026
58.349914550781 7.691743373871 -143.139968872070 0.052343 0.998629 0.001026
-143.349090576172 18.262342453003 -161.231292724609 0.052343 0.998629 0.001026
-65.876731872559 14.202180862427 -18.785392761230 0.052343 0.998629 0.001026
-164.548889160156 19.373363494873 118.910644531250 0.052343 0.998629 0.001026
-186.589019775391 20.528438568115 101.224090576172 0.052343 0.998629 0.001026
-110.605697631836 16.546323776245 35.347946166992 0.052343 0.998629 0.001026
-190.483581542969 20.732542037964 110.749786376953 0.052343 0.998629 0.001026
-109.586105346680 16.492900848389 -185.311218261719 0.052343 0.998629 0.001026
-102.772155761719 16.135786056519 8.535156250000 0.052343 0.998629 0.001026
-85.629203796387 15.237370491028 -159.578704833984 0.052343 0.998629 0.001026
-156.874053955078 18.971151351929 -101.843147277832 0.052343 0.998629 0.001026
-218.875854492188 22.220525741577 -29.406082153320 0.052343 0.998629 0.001026
-236.946197509766 23.167541503906 185.306533813477 0.052343 0.998629 0.001026
-105.030403137207 16.254142761230 -143.693832397461 0.052343 0.998629 0.001026
-142.318450927734 18.208328247070 -158.205688476563 0.052343 0.998629 0.001026
-242.977966308594 23.483667373657 -112.214202880859 0.052343 0.998629 0.001026
92.395393371582 5.907494544983 -127.717010498047 0.052343 0.998629 0.001026
-238.778930664063 23.263605117798 -114.817703247070 0.052343 0.998629 0.001026
-218.318511962891 22.191316604614 -45.613586425781 0.052343 0.998629 0.001026
-223.886276245117 22.483116149902 -100.427627563477 0.052343 0.998629 0.001026
73.198425292969 6.913563728333 -98.372726440430 0.052343 0.998629 0.001026
-111.200569152832 16.577501296997 -3.725708007813 0.052343 0.998629 0.001026
-20.613662719727 11.830043792725 -7.742683410645 0.052343 0.998629 0.001026
14.177703857422 10.006707191467 -62.052223205566 0.052343 0.998629 0.001026
-58.097137451172 13.794470787048 -50.849952697754 0.052343 0.998629 0.001026
-94.333930969238 15.693557739258 4.836898803711 0.052343 0.998629 0.001026
-201.262954711914 21.297466278076 74.843399047852 0.052343 0.998629 0.001026
-104.040283203125 16.202243804932 61.560623168945 0.052343 0.998629 0.001026
-158.049346923828 19.032747268677 -106.373970031738 0.052343 0.998629 0.001026
63.253143310547 7.434775352478 -127.150993347168 0.052343 0.998629 0.001026
-149.221694946289 18.570108413696 -85.554008483887 0.052343 0.998629 0.001026
-163.637390136719 19.325601577759 -65.744438171387 0.052343 0.998629 0.001026
-1.146499633789 10.809815406799 -78.097732543945 0.052343 0.998629 0.001026
-37.969383239746 12.739620208740 -68.053688049316 0.052343 0.998629 0.001026
-223.207168579102 22.447513580322 132.572006225586 0.052343 0.998629 0.001026
-31.528114318848 12.402046203613 -53.471611022949 0.052343 0.998629 0.001026
-204.223190307617 21.452615737915 -119.064865112305 0.052343 0.998629 0.001026
-180.009155273438 20.183601379395 68.653640747070 0.052343 0.998629 0.001026
-31.007247924805 12.374750137329 -57.191169738770 0.052343 0.998629 0.001026
-101.291259765625 16.058181762695 -126.422409057617 0.052343 0.998629 0.001026
-198.874786376953 21.172306060791 125.333053588867 0.052343 0.998629 0.001026
-215.255004882813 22.030765533447 -41.872558593750 0.052343 0.998629 0.001026
-251.626312255859 23.936893463135 195.029479980469 0.052343 0.998629 0.001026
-244.952789306641 23.587150573730 143.960418701172 0.052343 0.998629 0.001026
-86.513420104980 15.283700942993 20.235092163086 0.052343 0.998629 0.001026
-11.788208007813 11.367527008057 -154.223175048828 0.052343 0.998629 0.001026
-244.516906738281 23.564315795898 -58.544990539551 0.052343 0.998629 0.001026
-47.724334716797 13.250853538513 -11.583541870117 0.052343 0.998629 0.001026
-26.771507263184 12.152762413025 -25.852249145508 0.052343 0.998629 0.001026
-47.355709075928 13.231540679932 -133.694808959961 0.052343 0.998629 0.001026
-48.237457275391 13.277746200562 -28.086746215820 0.052343 0.998629 0.001026
-192.047729492188 20.814517974854 102.784774780273 0.052343 0.998629 0.001026
-108.445610046387 16.433124542236 -79.669189453125 0.052343 0.998629 0.001026
-6.425918579102 11.086496353149 -41.097023010254 0.052343 0.998629 0.001026
-220.772979736328 22.319946289063 23.745254516602 0.052343 0.998629 0.001026
-251.795150756836 23.945743560791 146.912460327148 0.052343 0.998629 0.001026
-156.132080078125 18.932262420654 20.864288330078 0.052343 0.998629 0.001026
-161.067672729492 19.190921783447 76.681564331055 0.052343 0.998629 0.001026
-240.348205566406 23.345844268799 -39.352600097656 0.052343 0.998629 0.001026
84.575454711914 6.317320823669 -141.356491088867 0.052343 0.998629 0.001026
-54.937053680420 13.628862380981 -130.783599853516 0.052343 0.998629 0.001026
-193.330978393555 20.881780624390 -131.604660034180 0.052343 0.998629 0.001026
-182.444412231445 20.311237335205 -90.534179687500 0.052343 0.998629 0.001026
-21.112556457520 11.856191635132 -56.585830688477 0.052343 0.998629 0.001026
37.589294433594 8.779758453369 -84.218338012695 0.052343 0.998629 0.001026
-138.158767700195 17.990318298340 47.937500000000 0.052343 0.998629 0.001026
-5.099525451660 11.016986846924 -115.277351379395 0.052343 0.998629 0.001026
66.341880798340 7.272900581360 -103.523483276367 0.052343 0.998629 0.001026
-112.735595703125 16.657947540283 29.289810180664 0.052343 0.998629 0.001026
-232.027374267578 22.909774780273 -177.328125000000 0.052343 0.998629 0.001026
-116.033676147461 16.830799102783 -125.614578247070 0.052343 0.998629 0.001026
-241.134948730469 23.387069702148 84.038406372070 0.052343 0.998629 0.001026
-232.180999755859 22.917823791504 -125.665641784668 0.052343 0.998629 0.001026
-163.033111572266 19.293926239014 94.358566284180 0.052343 0.998629 0.001026
46.092544555664 8.334124565125 -138.221725463867 0.052343 0.998629 0.001026
55.829349517822 7.823838233948 -104.188903808594 0.052343 0.998629 0.001026
-237.107192993164 23.175983428955 89.285003662109 0.052343 0.998629 0.001026
-112.400794982910 16.640411376953 -170.259185791016 0.052343 0.998629 0.001026
-176.912689208984 20.021331787109 -62.571266174316 0.052343 0.998629 0.001026
-205.345352172852 21.511415481567 114.726425170898 0.052343 0.998629 0.001026
-233.600418090820 22.992200851440 124.350463867188 0.052343 0.998629 0.001026
-240.441131591797 23.350706100464 167.639282226563 0.052343 0.998629 0.001026
-93.828697204590 15.667083740234 -72.131477355957 0.052343 0.998629 0.001026
-69.705070495605 14.402814865112 -26.860267639160 0.052343 0.998629 0.001026
-151.528137207031 18.690979003906 25.846923828125 0.052343 0.998629 0.001026
-197.400070190430 21.095020294189 129.499176025391 0.052343 0.998629 0.001026
-239.992263793945 23.327178955078 190.820236206055 0.052343 0.998629 0.001026
-86.951187133789 15.306650161743 -118.757690429688 0.052343 0.998629 0.001026
-100.855690002441 16.035354614258 -91.624954223633 0.052343 0.998629 0.001026
-224.895004272461 22.535970687866 73.892333984375 0.052343 0.998629 0.001026
-127.546630859375 17.434158325195 69.963119506836 0.052343 0.998629 0.001026
-66.522804260254 14.236046791077 -167.486709594727 0.052343 0.998629 0.001026
-95.044906616211 15.730826377869 -153.982269287109 0.052343 0.998629 0.001026
48.910919189453 8.186417579651 -90.810852050781 0.052343 0.998629 0.001026
-197.786453247070 21.115285873413 -202.045333862305 0.052343 0.998629 0.001026
-163.763916015625 19.332229614258 -17.587615966797 0.052343 0.998629 0.001026
-215.346328735352 22.035556793213 -124.366447448730 0.052343 0.998629 0.001026
-152.292633056641 18.731052398682 -120.093032836914 0.052343 0.998629 0.001026
-150.010314941406 18.611442565918 -183.133300781250 0.052343 0.998629 0.001026
-37.317512512207 12.705453872681 -10.711830139160 0.052343 0.998629 0.001026
-144.842651367188 18.340606689453 37.704330444336 0.052343 0.998629 0.001026
-52.917510986328 13.523015975952 -12.794433593750 0.052343 0.998629 0.001026
-213.569702148438 21.942432403564 147.676971435547 0.052343 0.998629 0.001026
-188.867187500000 20.647844314575 -175.334945678711 0.052343 0.998629 0.001026
-177.886718750000 20.072381973267 -132.401412963867 0.052343 0.998629 0.001026
17.865743637085 9.813428878784 -143.337371826172 0.052343 0.998629 0.001026
68.938430786133 7.136820793152 -98.415267944336 0.052343 0.998629 0.001026
-206.215591430664 21.557037353516 -138.654418945313 0.052343 0.998629 0.001026
-83.961509704590 15.149961471558 11.910293579102 0.052343 0.998629 0.001026
-58.927543640137 13.837996482849 -164.766326904297 0.052343 0.998629 0.001026
-232.631042480469 22.941402435303 36.588012695313 0.052343 0.998629 0.001026
-147.073928833008 18.457540512085 76.903823852539 0.052343 0.998629 0.001026
-198.196411132813 21.136760711670 -18.422729492188 0.052343 0.998629 0.001026
-235.592422485352 23.096599578857 50.084350585938 0.052343 0.998629 0.001026
-184.775878906250 20.433427810669 -146.329177856445 0.052343 0.998629 0.001026
-134.046890258789 17.774824142456 15.198608398438 0.052343 0.998629 0.001026
-202.435104370117 21.358907699585 -122.094703674316 0.052343 0.998629 0.001026
-202.143798828125 21.343635559082 -59.882797241211 0.052343 0.998629 0.001026
-209.561828613281 21.732391357422 98.510253906250 0.052343 0.998629 0.001026
-222.476135253906 22.409206390381 49.819747924805 0.052343 0.998629 0.001026
-189.827056884766 20.698150634766 -201.675048828125 0.052343 0.998629 0.001026
-104.086952209473 16.204692840576 -18.720932006836 0.052343 0.998629 0.001026
-182.280654907227 20.302646636963 92.857940673828 0.052343 0.998629 0.001026
-44.245315551758 13.068524360657 9.920486450195 0.052343 0.998629 0.001026
-33.656425476074 12.513587951660 -81.287651062012 0.052343 0.998629 0.001026
-217.927703857422 22.170839309692 -113.793830871582 0.052343 0.998629 0.001026
-103.725524902344 16.185750961304 12.650405883789 0.052343 0.998629 0.001026
-201.917892456055 21.331804275513 -140.274414062500 0.052343 0.998629 0.001026
-115.446495056152 16.800022125244 -12.704895019531 0.052343 0.998629 0.001026
-221.222229003906 22.343502044678 -193.691970825195 0.052343 0.998629 0.001026
-19.517631530762 11.772603034973 -19.803588867188 0.052343 0.998629 0.001026
-147.133605957031 18.460674285889 -56.345672607422 0.052343 0.998629 0.001026
-111.576148986816 16.597187042236 -71.286323547363 0.052343 0.998629 0.001026
2.711916446686 10.607607841492 -154.833465576172 0.052343 0.998629 0.001026
-175.292999267578 19.936437606812 122.761657714844 0.052343 0.998629 0.001026
-24.211654663086 12.018607139587 -37.996963500977 0.052343 0.998629 0.001026
-93.432487487793 15.646317481995 -34.534240722656 0.052343 0.998629 0.001026
-35.215400695801 12.595294952393 -160.447998046875 0.052343 0.998629 0.001026
-126.506156921387 17.379642486572 -186.206176757813 0.052343 0.998629 0.001026
-77.797508239746 14.826920509338 9.394790649414 0.052343 0.998629 0.001026
37.731796264648 8.772293090820 -136.171524047852 0.052343 0.998629 0.001026
-180.453994750977 20.206926345825 -145.527954101563 0.052343 0.998629 0.001026
-148.158081054688 18.514364242554 -55.665145874023 0.052343 0.998629 0.001026
-108.233062744141 16.421987533569 -150.166992187500 0.052343 0.998629 0.001026
60.335742950439 7.587667942047 -89.240798950195 0.052343 0.998629 0.001026
-233.742858886719 22.999675750732 -65.191032409668 0.052343 0.998629 0.001026
-204.648666381836 21.474903106689 83.734771728516 0.052343 0.998629 0.001026
-217.373428344727 22.141780853271 120.149597167969 0.052343 0.998629 0.001026
-226.370666503906 22.613321304321 -199.112442016602 0.052343 0.998629 0.001026
-226.247314453125 22.606849670410 -42.941436767578 0.052343 0.998629 0.001026
-86.649383544922 15.290828704834 -14.314208984375 0.052343 0.998629 0.001026
-226.138336181641 22.601144790649 -186.791137695313 0.052343 0.998629 0.001026
-114.132003784180 16.731130599976 25.603912353516 0.052343 0.998629 0.001026
-55.152088165283 13.640130996704 -136.174468994141 0.052343 0.998629 0.001026
-48.060714721680 13.268488883972 -148.869567871094 0.052343 0.998629 0.001026
-123.187362670898 17.205707550049 -130.619537353516 0.052343 0.998629 0.001026
-230.297851562500 22.819122314453 67.518325805664 0.052343 0.998629 0.001026
-160.747222900391 19.174129486084 53.135177612305 0.052343 0.998629 0.001026
-190.459350585938 20.731279373169 -17.443862915039 0.052343 0.998629 0.001026
-73.161239624023 14.583944320679 17.162979125977 0.052343 0.998629 0.001026
-238.678619384766 23.258338928223 81.376907348633 0.052343 0.998629 0.001026
-197.594787597656 21.105228424072 19.656951904297 0.052343 0.998629 0.001026
-182.799499511719 20.329847335815 -83.634216308594 0.052343 0.998629 0.001026
-187.531692504883 20.577854156494 -126.962783813477 0.052343 0.998629 0.001026
29.795768737793 9.188199043274 -68.390396118164 0.052343 0.998629 0.001026
-158.011489868164 19.030757904053 -22.507904052734 0.052343 0.998629 0.001026
-237.249114990234 23.183431625366 -102.829002380371 0.052343 0.998629 0.001026
-243.106262207031 23.490388870239 -50.676483154297 0.052343 0.998629 0.001026
-141.143829345703 18.146762847900 -52.919174194336 0.052343 0.998629 0.001026
-144.505187988281 18.322921752930 -19.168472290039 0.052343 0.998629 0.001026
-99.075180053711 15.942039489746 -77.954216003418 0.052343 0.998629 0.001026
-85.771080017090 15.244796752930 52.291763305664 0.052343 0.998629 0.001026
-229.944641113281 22.800611495972 73.041610717773 0.052343 0.998629 0.001026
-74.661460876465 14.662567138672 16.853744506836 0.052343 0.998629 0.001026
-45.027755737305 13.109531402588 -22.392601013184 0.052343 0.998629 0.001026
-149.217407226563 18.569887161255 -139.339385986328 0.052343 0.998629 0.001026
-53.634948730469 13.560621261597 -112.340789794922 0.052343 0.998629 0.001026
-240.826110839844 23.370887756348 37.627700805664 0.052343 0.998629 0.001026
-108.529182434082 16.437500000000 -6.940887451172 0.052343 0.998629 0.001026
-117.368515014648 16.900758743286 -177.718704223633 0.052343 0.998629 0.001026
