//X Y Z Nx Ny Nz
606
140.932113647461 210.457534790039 -83.689544677734 0.990125 -0.140185 0.001104
130.256835937500 134.498977661133 -77.108993530273 0.990125 -0.140185 0.001104
132.850814819336 152.956085205078 -90.749114990234 0.990125 -0.140185 0.001104
139.034179687500 196.953063964844 -82.474029541016 0.990125 -0.140185 0.001104
141.401504516602 213.797439575195 -87.726219177246 0.990125 -0.140185 0.001104
137.095886230469 183.161407470703 -81.286506652832 0.990125 -0.140185 0.001104
139.328933715820 199.050323486328 -84.734161376953 0.990125 -0.140185 0.001104
137.852264404297 188.543228149414 -92.323303222656 0.990125 -0.140185 0.001104
140.989593505859 210.866485595703 -89.742721557617 0.990125 -0.140185 0.001104
149.397872924805 270.694549560547 -91.968498229980 0.990125 -0.140185 0.001104
158.141265869141 332.907104492188 -94.534049987793 0.990125 -0.140185 0.001104
130.276885986328 134.641693115234 -93.515686035156 0.990125 -0.140185 0.001104
146.325088500977 248.830535888672 -95.121994018555 0.990125 -0.140185 0.001104
131.319061279297 142.057159423828 -89.993980407715 0.990125 -0.140185 0.001104
137.735549926758 187.712829589844 -91.216232299805 0.990125 -0.140185 0.001104
140.238510131836 205.522308349609 -92.603164672852 0.990125 -0.140185 0.001104
143.603057861328 229.462280273438 -93.301628112793 0.990125 -0.140185 0.001104
132.563064575195 150.908660888672 -82.133636474609 0.990125 -0.140185 0.001104
136.641403198242 179.927581787109 -89.883010864258 0.990125 -0.140185 0.001104
131.461074829102 143.067581176758 -79.638107299805 0.990125 -0.140185 0.001104
142.670227050781 222.824890136719 -92.019783020020 0.990125 -0.140185 0.001104
150.175354003906 276.226623535156 -88.568252563477 0.990125 -0.140185 0.001104
138.738006591797 194.845672607422 -90.142494201660 0.990125 -0.140185 0.001104
131.379226684570 142.485198974609 -88.514579772949 0.990125 -0.140185 0.001104
150.443939208984 278.137664794922 -93.499633789063 0.990125 -0.140185 0.001104
155.107223510742 311.318695068359 -94.736724853516 0.990125 -0.140185 0.001104
134.065658569336 161.600128173828 -94.037551879883 0.990125 -0.140185 0.001104
151.709213256836 287.140594482422 -94.514930725098 0.990125 -0.140185 0.001104
140.586898803711 208.001266479492 -90.543869018555 0.990125 -0.140185 0.001104
132.810714721680 152.670776367188 -89.030212402344 0.990125 -0.140185 0.001104
130.156509399414 133.785125732422 -83.375534057617 0.990125 -0.140185 0.001104
132.176345825195 148.156997680664 -86.083389282227 0.990125 -0.140185 0.001104
138.557891845703 193.564147949219 -88.010810852051 0.990125 -0.140185 0.001104
146.082809448242 247.106628417969 -94.611938476563 0.990125 -0.140185 0.001104
139.610107421875 201.051025390625 -93.796775817871 0.990125 -0.140185 0.001104
143.450836181641 228.379211425781 -87.953277587891 0.990125 -0.140185 0.001104
130.799392700195 138.359466552734 -94.726989746094 0.990125 -0.140185 0.001104
139.989227294922 203.748626708984 -90.087852478027 0.990125 -0.140185 0.001104
135.197601318359 169.654357910156 -84.742835998535 0.990125 -0.140185 0.001104
132.060317993164 147.331390380859 -86.248725891113 0.990125 -0.140185 0.001104
133.280578613281 156.014022827148 -95.130767822266 0.990125 -0.140185 0.001104
136.828872680664 181.261489868164 -92.895141601563 0.990125 -0.140185 0.001104
133.050140380859 154.374389648438 -93.289840698242 0.990125 -0.140185 0.001104
134.406433105469 164.024978637695 -93.335990905762 0.990125 -0.140185 0.001104
137.350891113281 184.975860595703 -87.892837524414 0.990125 -0.140185 0.001104
142.536483764648 221.873229980469 -87.007713317871 0.990125 -0.140185 0.001104
137.384674072266 185.216217041016 -87.198661804199 0.990125 -0.140185 0.001104
147.485443115234 257.167297363281 -76.077346801758 0.986571 -0.138570 0.086458
135.641296386719 172.915100097656 -76.040245056152 0.986571 -0.138570 0.086458
135.891525268555 174.817352294922 -75.846580505371 0.986571 -0.138570 0.086458
144.086135864258 233.384780883789 -75.602416992188 0.956405 -0.133237 0.259878
140.618392944336 209.057250976563 -75.422370910645 0.956405 -0.133237 0.259878
143.983917236328 233.550292968750 -75.155960083008 0.897535 -0.125796 0.422619
153.500869750977 302.293151855469 -74.849700927734 0.897535 -0.125796 0.422619
145.595764160156 247.553741455078 -74.501625061035 0.812290 -0.112696 0.572262
132.492538452148 155.036804199219 -74.359054565430 0.812290 -0.112696 0.572262
154.943283081055 315.628265380859 -74.216651916504 0.700729 -0.098425 0.706605
131.715728759766 150.983108520508 -74.129325866699 0.700729 -0.098425 0.706605
133.742050170898 165.306488037109 -74.142501831055 0.700729 -0.098425 0.706605
134.177597045898 170.246765136719 -73.892524719238 0.569077 -0.078839 0.818496
160.539749145508 358.605773925781 -73.816268920898 0.569077 -0.078839 0.818496
132.055801391602 158.001129150391 -73.614654541016 0.569077 -0.078839 0.818496
152.631866455078 305.325134277344 -73.552604675293 0.417579 -0.058110 0.906781
130.394317626953 149.535614013672 -73.394332885742 0.417579 -0.058110 0.906781
148.594558715820 280.043090820313 -73.353355407715 0.257116 -0.035676 0.965722
145.098205566406 254.520263671875 -73.377410888672 0.257116 -0.035676 0.965722
148.573608398438 281.312164306641 -73.300453186035 0.257116 -0.035676 0.965722
151.677169799805 305.437805175781 -73.242172241211 0.086485 -0.011745 0.996184
133.310150146484 175.805374145508 -73.229339599609 0.086485 -0.011745 0.996184
127.912704467773 138.768203735352 -73.212699890137 0.086485 -0.011745 0.996184
151.670700073242 329.900878906250 -73.205307006836 0.000978 0.000978 0.999999
146.240127563477 294.977935791016 -73.205307006836 0.000978 0.000978 0.999999
148.239562988281 312.726867675781 -73.205307006836 0.000978 0.000978 0.999999
157.546356201172 355.298217773438 -73.205307006836 0.000978 0.000978 0.999999
154.597198486328 339.589569091797 -73.205307006836 0.000978 0.000978 0.999999
147.139862060547 294.290679931641 -73.205307006836 0.000978 0.000978 0.999999
135.787322998047 222.999221801758 -73.205314636230 0.000978 0.000978 0.999999
153.223312377930 345.109558105469 -73.205307006836 0.000978 0.000978 0.999999
157.300949096680 362.407623291016 -73.205307006836 0.000978 0.000978 0.999999
159.733489990234 375.044891357422 -73.205307006836 0.000978 0.000978 0.999999
141.789413452148 240.183319091797 -73.205314636230 0.000978 0.000978 0.999999
137.542114257813 217.583541870117 -73.205314636230 0.000978 0.000978 0.999999
129.462448120117 150.520690917969 -73.205314636230 0.000978 0.000978 0.999999
134.807159423828 204.146850585938 -73.205314636230 0.000978 0.000978 0.999999
131.008026123047 183.104812622070 -73.205314636230 0.000978 0.000978 0.999999
150.952941894531 308.769287109375 -73.205307006836 0.000978 0.000978 0.999999
126.559638977051 133.892578125000 -73.205314636230 0.000978 0.000978 0.999999
142.813232421875 258.334289550781 -73.205307006836 0.000978 0.000978 0.999999
128.128753662109 142.637008666992 -73.205314636230 0.000978 0.000978 0.999999
144.598419189453 263.378967285156 -73.205307006836 0.000978 0.000978 0.999999
155.778884887695 367.640502929688 -18.220418930054 -0.086670 0.011770 0.996168
132.187500000000 200.142181396484 -18.224847793579 -0.086670 0.011770 0.996168
138.524322509766 247.656188964844 -18.261690139771 -0.256506 0.035592 0.965887
137.754058837891 242.741989135742 -18.282821655273 -0.256506 0.035592 0.965887
125.981758117676 160.284744262695 -18.331575393677 -0.256506 0.035592 0.965887
134.007995605469 218.995407104492 -18.395044326782 -0.417579 0.058110 0.906781
153.603118896484 359.188781738281 -18.444797515869 -0.417579 0.058110 0.906781
128.237442016602 180.229354858398 -18.543889999390 -0.417579 0.058110 0.906781
124.209465026855 151.917053222656 -18.566495895386 -0.417579 0.058110 0.906781
138.475540161133 254.899536132813 -18.689695358276 -0.569077 0.078839 0.818496
140.496810913086 270.496337890625 -18.808069229126 -0.569077 0.078839 0.818496
144.348693847656 299.926574707031 -19.047132492065 -0.700729 0.098425 0.706605
138.602920532227 259.664672851563 -19.133602142334 -0.700729 0.098425 0.706605
147.380050659180 323.735534667969 -19.393911361694 -0.812290 0.112696 0.572262
139.020416259766 265.115356445313 -19.565217971802 -0.812290 0.112696 0.572262
128.257751464844 188.967254638672 -19.651138305664 -0.812290 0.112696 0.572262
128.644439697266 192.233489990234 -19.777610778809 -0.897535 0.125796 0.422619
124.734184265137 165.653961181641 -20.148712158203 -0.897535 0.125796 0.422619
137.076354980469 254.030319213867 -20.415485382080 -0.956405 0.133237 0.259878
148.618179321289 336.032043457031 -20.351808547974 -0.956405 0.133237 0.259878
119.658958435059 130.026412963867 -20.377738952637 -0.956405 0.133237 0.259878
139.567367553711 272.432159423828 -20.938394546509 -0.986571 0.138570 0.086458
120.084434509277 133.702148437500 -20.776659011841 -0.986571 0.138570 0.086458
129.086883544922 197.978973388672 -21.128286361694 -0.986571 0.138570 0.086458
145.606674194336 315.571777343750 -35.369186401367 -0.990125 0.140185 0.001104
127.303695678711 185.339248657227 -37.657482147217 -0.990125 0.140185 0.001104
141.166534423828 283.978546142578 -35.423561096191 -0.990125 0.140185 0.001104
136.816223144531 253.024459838867 -35.000926971436 -0.990125 0.140185 0.001104
143.938262939453 303.700439453125 -38.953182220459 -0.990125 0.140185 0.001104
154.800262451172 380.987579345703 -29.204883575439 -0.990125 0.140185 0.001104
149.699249267578 344.691986083984 -24.129211425781 -0.990125 0.140185 0.001104
148.505584716797 336.198608398438 -27.082607269287 -0.990125 0.140185 0.001104
144.566772460938 308.172454833984 -40.097057342529 -0.990125 0.140185 0.001104
135.836013793945 246.049880981445 -40.102622985840 -0.990125 0.140185 0.001104
148.129776000977 333.524566650391 -36.449195861816 -0.990125 0.140185 0.001104
124.958084106445 168.649383544922 -39.204921722412 -0.990125 0.140185 0.001104
140.672637939453 280.464263916016 -29.687654495239 -0.990125 0.140185 0.001104
125.924438476563 175.525329589844 -37.194416046143 -0.990125 0.140185 0.001104
153.360961914063 370.746398925781 -25.044666290283 -0.990125 0.140185 0.001104
136.140975952148 248.219818115234 -31.748760223389 -0.990125 0.140185 0.001104
139.372940063477 271.216430664063 -32.613403320313 -0.990125 0.140185 0.001104
148.197204589844 334.004364013672 -39.146579742432 -0.990125 0.140185 0.001104
132.455917358398 221.999206542969 -36.449035644531 -0.990125 0.140185 0.001104
145.402755737305 314.120788574219 -38.873565673828 -0.990125 0.140185 0.001104
128.087173461914 190.914016723633 -35.785724639893 -0.990125 0.140185 0.001104
151.902832031250 360.371246337891 -24.637676239014 -0.990125 0.140185 0.001104
150.149505615234 347.895690917969 -38.657524108887 -0.990125 0.140185 0.001104
140.447753906250 278.864105224609 -36.312690734863 -0.990125 0.140185 0.001104
141.002227783203 282.809448242188 -31.833494186401 -0.990125 0.140185 0.001104
154.273590087891 377.240020751953 -30.884607315063 -0.990125 0.140185 0.001104
147.349319458008 327.971374511719 -26.209016799927 -0.990125 0.140185 0.001104
152.663146972656 365.781127929688 -31.491523742676 -0.990125 0.140185 0.001104
153.232513427734 369.832458496094 -33.303386688232 -0.990125 0.140185 0.001104
136.228317260742 248.841278076172 -34.240131378174 -0.990125 0.140185 0.001104
135.567840576172 244.141677856445 -34.324470520020 -0.990125 0.140185 0.001104
137.154617309570 255.432235717773 -39.079574584961 -0.990125 0.140185 0.001104
135.388671875000 242.866912841797 -35.749763488770 -0.990125 0.140185 0.001104
134.709609985352 238.035049438477 -33.728553771973 -0.990125 0.140185 0.001104
147.764465332031 330.925231933594 -29.535350799561 -0.990125 0.140185 0.001104
152.695068359375 366.008270263672 -32.252712249756 -0.990125 0.140185 0.001104
146.386428833008 321.119934082031 -25.817462921143 -0.990125 0.140185 0.001104
152.137237548828 362.039062500000 -22.908496856689 -0.990125 0.140185 0.001104
123.868690490723 160.897933959961 -39.952705383301 -0.990125 0.140185 0.001104
150.776504516602 352.356964111328 -30.954101562500 -0.990125 0.140185 0.001104
134.318389892578 235.251434326172 -32.255462646484 -0.990125 0.140185 0.001104
146.621795654297 322.794677734375 -35.309001922607 -0.990125 0.140185 0.001104
150.332916259766 349.200714111328 -34.955104827881 -0.990125 0.140185 0.001104
143.130432128906 297.952423095703 -39.243125915527 -0.990125 0.140185 0.001104
151.267105102539 355.847778320313 -27.093656539917 -0.990125 0.140185 0.001104
137.064910888672 254.793975830078 -37.995269775391 -0.990125 0.140185 0.001104
139.482238769531 271.994171142578 -38.136802673340 -0.990125 0.140185 0.001104
137.378768920898 257.027099609375 -36.208564758301 -0.990125 0.140185 0.001104
154.037445068359 375.559844970703 -28.021987915039 -0.990125 0.140185 0.001104
151.312255859375 356.169067382813 -34.824272155762 -0.990125 0.140185 0.001104
127.137756347656 184.158538818359 -24.249158859253 -0.990125 0.140185 0.001104
121.778083801270 146.022491455078 -24.857252120972 -0.990125 0.140185 0.001104
125.887130737305 175.259918212891 -31.435373306274 -0.990125 0.140185 0.001104
143.319656372070 299.298767089844 -22.516119003296 -0.990125 0.140185 0.001104
123.612792968750 159.077163696289 -34.013107299805 -0.990125 0.140185 0.001104
131.582901000977 215.787414550781 -30.182380676270 -0.990125 0.140185 0.001104
139.331466674805 270.921386718750 -25.719118118286 -0.990125 0.140185 0.001104
122.085342407227 148.208740234375 -28.668905258179 -0.990125 0.140185 0.001104
126.507209777832 179.671997070313 -23.606231689453 -0.990125 0.140185 0.001104
143.339218139648 299.437957763672 -22.439327239990 -0.990125 0.140185 0.001104
143.649078369141 301.642761230469 -23.937465667725 -0.990125 0.140185 0.001104
129.335678100586 199.797622680664 -33.918521881104 -0.990125 0.140185 0.001104
120.600715637207 137.645095825195 -21.304235458374 -0.990125 0.140185 0.001104
141.962738037109 289.643859863281 -21.707973480225 -0.990125 0.140185 0.001104
130.211090087891 206.026443481445 -23.690782546997 -0.990125 0.140185 0.001104
136.723663330078 252.365814208984 -28.886137008667 -0.990125 0.140185 0.001104
151.112182617188 354.745483398438 -21.982131958008 -0.990125 0.140185 0.001104
135.356170654297 242.635650634766 -30.842189788818 -0.990125 0.140185 0.001104
147.889907836914 331.817749023438 -24.586534500122 -0.990125 0.140185 0.001104
140.594711303711 279.909820556641 -23.457176208496 -0.990125 0.140185 0.001104
124.387870788574 164.592086791992 -23.299562454224 -0.990125 0.140185 0.001104
120.574424743652 137.458038330078 -25.215028762817 -0.990125 0.140185 0.001104
139.461563110352 271.847045898438 -21.449508666992 -0.990125 0.140185 0.001104
122.681549072266 152.451004028320 -36.655189514160 -0.990125 0.140185 0.001104
122.364868164063 150.197677612305 -33.271781921387 -0.990125 0.140185 0.001104
121.930305480957 147.105621337891 -32.033405303955 -0.990125 0.140185 0.001104
126.836357116699 182.013977050781 -35.795124053955 -0.990125 0.140185 0.001104
144.767364501953 309.599761962891 -23.774929046631 -0.990125 0.140185 0.001104
129.861785888672 203.541091918945 -21.707286834717 -0.990125 0.140185 0.001104
136.770233154297 252.697204589844 -28.857765197754 -0.990125 0.140185 0.001104
128.917984008789 196.825485229492 -26.518180847168 -0.990125 0.140185 0.001104
133.062362670898 226.314361572266 -31.735363006592 -0.990125 0.140185 0.001104
138.651153564453 266.080688476563 -25.596290588379 -0.990125 0.140185 0.001104
127.681877136230 188.030181884766 -35.581268310547 -0.990125 0.140185 0.001104
142.747451782227 295.227294921875 -21.339038848877 -0.990125 0.140185 0.001104
125.672531127930 173.732940673828 -32.963386535645 -0.990125 0.140185 0.001104
129.557281494141 201.374374389648 -29.527008056641 -0.990125 0.140185 0.001104
121.942390441895 147.191589355469 -30.093616485596 -0.990125 0.140185 0.001104
120.362213134766 135.948074340820 -31.858768463135 -0.990125 0.140185 0.001104
131.514663696289 215.301879882813 -28.259750366211 -0.990125 0.140185 0.001104
144.295776367188 306.244262695313 -26.434770584106 -0.990125 0.140185 0.001104
122.096580505371 148.288726806641 -28.884075164795 -0.990125 0.140185 0.001104
123.852439880371 160.782318115234 -34.444305419922 -0.990125 0.140185 0.001104
132.102600097656 219.485229492188 -32.366516113281 -0.990125 0.140185 0.001104
120.545379638672 137.251327514648 -36.245563507080 -0.990125 0.140185 0.001104
142.977813720703 296.866394042969 -22.840848922729 -0.990125 0.140185 0.001104
125.846145629883 174.968276977539 -25.760656356812 -0.990125 0.140185 0.001104
121.907623291016 146.944198608398 -36.986946105957 -0.990125 0.140185 0.001104
137.058319091797 254.747070312500 -30.698608398438 -0.990125 0.140185 0.001104
134.921508789063 239.454483032227 -40.345798492432 -0.986571 0.138570 -0.086458
146.280487060547 320.111572265625 -40.610332489014 -0.986571 0.138570 -0.086458
141.998321533203 289.325103759766 -40.853206634521 -0.956405 0.133237 -0.259878
139.118972778320 268.898498535156 -40.821472167969 -0.956405 0.133237 -0.259878
124.278724670410 163.225311279297 -40.862731933594 -0.956405 0.133237 -0.259878
125.860008239746 173.881072998047 -41.172111511230 -0.956405 0.133237 -0.259878
141.383773803711 284.200958251953 -41.238327026367 -0.897535 0.125796 -0.422619
154.560653686523 377.367340087891 -41.415019989014 -0.897535 0.125796 -0.422619
125.508285522461 169.861038208008 -41.650199890137 -0.897535 0.125796 -0.422619
132.593582153320 220.626296997070 -41.545494079590 -0.897535 0.125796 -0.422619
135.978317260742 244.104675292969 -41.719200134277 -0.812290 0.112696 -0.572262
128.672897338867 191.384231567383 -41.866191864014 -0.812290 0.112696 -0.572262
126.165367126465 173.936737060547 -41.787792205811 -0.812290 0.112696 -0.572262
140.073944091797 270.724853515625 -42.194385528564 -0.700729 0.098425 -0.706605
148.663116455078 329.688293457031 -42.493839263916 -0.700729 0.098425 -0.706605
147.865036010742 322.145355224609 -42.678356170654 -0.569077 0.078839 -0.818496
149.866699218750 337.270141601563 -42.592395782471 -0.569077 0.078839 -0.818496
127.603057861328 177.722549438477 -42.702861785889 -0.569077 0.078839 -0.818496
136.856658935547 242.970062255859 -42.760868072510 -0.569077 0.078839 -0.818496
142.311935424805 279.410400390625 -42.929241180420 -0.417579 0.058110 -0.906781
142.861282348633 282.936706542969 -42.954071044922 -0.417579 0.058110 -0.906781
134.676208496094 225.537078857422 -42.899543762207 -0.417579 0.058110 -0.906781
150.943710327148 337.946533203125 -43.077190399170 -0.256506 0.035592 -0.965887
125.592330932617 155.394470214844 -43.158050537109 -0.256506 0.035592 -0.965887
145.538131713867 295.354400634766 -43.183063507080 -0.086670 0.011770 -0.996168
141.993576049805 270.566711425781 -43.177791595459 -0.086670 0.011770 -0.996168
127.248313903809 164.475921630859 -43.192081451416 -0.086670 0.011770 -0.996168
139.818145751953 240.395050048828 -43.205314636230 0.000978 0.000978 -0.999999
133.104263305664 192.366180419922 -43.205314636230 0.000978 0.000978 -0.999999
143.408325195313 270.373992919922 -43.205310821533 0.000978 0.000978 -0.999999
126.921783447266 146.249679565430 -43.205318450928 0.000978 0.000978 -0.999999
135.445159912109 217.483612060547 -43.205314636230 0.000978 0.000978 -0.999999
133.721084594727 208.894989013672 -43.205314636230 0.000978 0.000978 -0.999999
136.829071044922 224.896896362305 -43.205314636230 0.000978 0.000978 -0.999999
131.300964355469 180.727508544922 -43.205314636230 0.000978 0.000978 -0.999999
127.576255798340 143.058471679688 -43.205318450928 0.000978 0.000978 -0.999999
140.922454833984 257.007354736328 -43.205310821533 0.000978 0.000978 -0.999999
155.664855957031 363.004455566406 -43.205307006836 0.000978 0.000978 -0.999999
143.650360107422 253.754272460938 -43.205314636230 0.000978 0.000978 -0.999999
158.880294799805 374.645721435547 -43.205307006836 0.000978 0.000978 -0.999999
133.932800292969 184.475280761719 -43.205314636230 0.000978 0.000978 -0.999999
151.940124511719 321.090911865234 -43.205310821533 0.000978 0.000978 -0.999999
158.909652709961 360.902618408203 -43.205307006836 0.000978 0.000978 -0.999999
141.728057861328 250.810501098633 -43.205314636230 0.000978 0.000978 -0.999999
151.400085449219 311.355285644531 -43.205310821533 0.000978 0.000978 -0.999999
153.224411010742 320.924499511719 -43.205310821533 0.000978 0.000978 -0.999999
149.618545532227 312.694549560547 -43.205310821533 0.000978 0.000978 -0.999999
146.761001586914 279.676757812500 -43.205310821533 0.000978 0.000978 -0.999999
160.076538085938 365.451354980469 -43.171424865723 0.086670 -0.011770 -0.996168
133.106552124023 173.838867187500 -43.174949645996 0.086670 -0.011770 -0.996168
144.197830200195 250.490737915039 -43.121810913086 0.256506 -0.035592 -0.965887
140.592437744141 225.122146606445 -43.132446289063 0.256506 -0.035592 -0.965887
132.895706176758 169.505157470703 -43.100677490234 0.256506 -0.035592 -0.965887
159.254394531250 353.392852783203 -42.919345855713 0.417579 -0.058110 -0.906781
144.034240722656 244.986785888672 -42.912269592285 0.417579 -0.058110 -0.906781
154.688079833984 318.713775634766 -42.764305114746 0.569077 -0.078839 -0.818496
133.648742675781 166.727783203125 -42.541824340820 0.569077 -0.078839 -0.818496
141.331466674805 222.245697021484 -42.624874114990 0.569077 -0.078839 -0.818496
137.828491210938 195.590576171875 -42.436119079590 0.700729 -0.098425 -0.706605
153.462799072266 305.040649414063 -42.186473846436 0.700729 -0.098425 -0.706605
140.819885253906 214.593917846680 -42.112140655518 0.812290 -0.112696 -0.572262
140.038360595703 208.297576904297 -41.965961456299 0.812290 -0.112696 -0.572262
141.310501098633 217.245407104492 -41.945331573486 0.812290 -0.112696 -0.572262
139.532913208008 202.941345214844 -41.571537017822 0.897535 -0.125796 -0.422619
132.766677856445 154.316375732422 -41.428047180176 0.897535 -0.125796 -0.422619
130.059188842773 135.342132568359 -41.514747619629 0.897535 -0.125796 -0.422619
157.717041015625 331.185577392578 -41.229843139648 0.956405 -0.133237 -0.259878
134.370651245117 164.524353027344 -40.947818756104 0.956405 -0.133237 -0.259878
150.468933105469 278.811462402344 -40.813774108887 0.956405 -0.133237 -0.259878
153.475631713867 299.990753173828 -40.653137207031 0.986571 -0.138570 -0.086458
149.712600708008 272.970672607422 -40.263851165771 0.986571 -0.138570 -0.086458
150.369827270508 277.610351562500 -23.865457534790 0.990125 -0.140185 0.001104
143.670608520508 229.942932128906 -28.342689514160 0.990125 -0.140185 0.001104
149.410949707031 270.787597656250 -21.212791442871 0.990125 -0.140185 0.001104
163.664794921875 372.209014892578 -39.405403137207 0.990125 -0.140185 0.001104
159.688125610352 343.913513183594 -23.628566741943 0.990125 -0.140185 0.001104
155.708190917969 315.594787597656 -28.458784103394 0.990125 -0.140185 0.001104
148.482467651367 264.181091308594 -27.252904891968 0.990125 -0.140185 0.001104
164.244644165039 376.334899902344 -27.533437728882 0.990125 -0.140185 0.001104
143.098953247070 225.875427246094 -21.753475189209 0.990125 -0.140185 0.001104
157.465438842773 328.098297119141 -35.245845794678 0.990125 -0.140185 0.001104
143.624023437500 229.611541748047 -26.340019226074 0.990125 -0.140185 0.001104
157.381622314453 327.501861572266 -35.217174530029 0.990125 -0.140185 0.001104
141.054016113281 211.324981689453 -23.266887664795 0.990125 -0.140185 0.001104
158.476058959961 335.289215087891 -36.740093231201 0.990125 -0.140185 0.001104
163.347625732422 369.952178955078 -25.957933425903 0.990125 -0.140185 0.001104
152.980377197266 296.185424804688 -21.839611053467 0.990125 -0.140185 0.001104
161.717544555664 358.353576660156 -22.322101593018 0.990125 -0.140185 0.001104
164.541992187500 378.450561523438 -32.716175079346 0.990125 -0.140185 0.001104
135.439193725586 171.373367309570 -21.821464538574 0.990125 -0.140185 0.001104
151.412445068359 285.028991699219 -30.739618301392 0.990125 -0.140185 0.001104
153.072753906250 296.842651367188 -31.090099334717 0.990125 -0.140185 0.001104
163.311431884766 369.694702148438 -28.636333465576 0.990125 -0.140185 0.001104
130.835266113281 138.614715576172 -21.955774307251 0.990125 -0.140185 0.001104
153.057388305664 296.733337402344 -26.614753723145 0.990125 -0.140185 0.001104
157.113693237305 325.595458984375 -30.529230117798 0.990125 -0.140185 0.001104
162.000335693359 360.365783691406 -26.437334060669 0.990125 -0.140185 0.001104
154.337188720703 305.839660644531 -32.002731323242 0.990125 -0.140185 0.001104
164.489746093750 378.078826904297 -37.988048553467 0.990125 -0.140185 0.001104
134.515808105469 164.803100585938 -23.022249221802 0.990125 -0.140185 0.001104
158.848632812500 337.940246582031 -25.253356933594 0.990125 -0.140185 0.001104
154.759399414063 308.843750000000 -27.532665252686 0.990125 -0.140185 0.001104
139.655273437500 201.372390747070 -25.777299880981 0.990125 -0.140185 0.001104
157.051818847656 325.155212402344 -27.178716659546 0.990125 -0.140185 0.001104
143.318237304688 227.435760498047 -22.530755996704 0.990125 -0.140185 0.001104
148.236038208008 262.427642822266 -26.785430908203 0.990125 -0.140185 0.001104
137.466125488281 185.795730590820 -24.134134292603 0.990125 -0.140185 0.001104
143.265731811523 227.062057495117 -25.928768157959 0.990125 -0.140185 0.001104
164.678100585938 379.419067382813 -37.956859588623 0.990125 -0.140185 0.001104
159.982696533203 346.009490966797 -34.595069885254 0.990125 -0.140185 0.001104
141.692993164063 215.871505737305 -24.310804367065 0.990125 -0.140185 0.001104
163.669311523438 372.241210937500 -39.466293334961 0.990125 -0.140185 0.001104
162.812118530273 366.141937255859 -35.073406219482 0.990125 -0.140185 0.001104
159.106216430664 339.773071289063 -30.555313110352 0.990125 -0.140185 0.001104
163.980361938477 374.454376220703 -28.682992935181 0.990125 -0.140185 0.001104
139.866836547852 202.877700805664 -25.319356918335 0.990125 -0.140185 0.001104
164.102050781250 375.320220947266 -23.391195297241 0.990125 -0.140185 0.001104
158.052368164063 332.274536132813 -35.133407592773 0.990125 -0.140185 0.001104
142.374847412109 220.723159790039 -24.413635253906 0.990125 -0.140185 0.001104
143.691940307617 230.094741821289 -25.698287963867 0.990125 -0.140185 0.001104
159.042907714844 339.322540283203 -32.386848449707 0.990125 -0.140185 0.001104
137.286911010742 184.520538330078 -39.697082519531 0.990125 -0.140185 0.001104
142.176849365234 219.314361572266 -31.011959075928 0.990125 -0.140185 0.001104
162.149414062500 361.426544189453 -39.917564392090 0.990125 -0.140185 0.001104
136.011093139648 175.442657470703 -35.683658599854 0.990125 -0.140185 0.001104
152.418426513672 292.186889648438 -34.329700469971 0.990125 -0.140185 0.001104
130.882934570313 138.953887939453 -32.368904113770 0.990125 -0.140185 0.001104
159.082809448242 339.606475830078 -37.316322326660 0.990125 -0.140185 0.001104
134.789871215820 166.753204345703 -35.138748168945 0.990125 -0.140185 0.001104
131.324783325195 142.097808837891 -25.619337081909 0.990125 -0.140185 0.001104
145.896255493164 245.779266357422 -30.367679595947 0.990125 -0.140185 0.001104
142.723052978516 223.200805664063 -31.405227661133 0.990125 -0.140185 0.001104
138.184539794922 190.907485961914 -38.119251251221 0.990125 -0.140185 0.001104
132.190109252930 148.254974365234 -38.933341979980 0.990125 -0.140185 0.001104
132.031265258789 147.124725341797 -37.135356903076 0.990125 -0.140185 0.001104
134.016433715820 161.249877929688 -24.819311141968 0.990125 -0.140185 0.001104
150.999801635742 282.092895507813 -39.145938873291 0.990125 -0.140185 0.001104
129.885025024414 131.853363037109 -30.543487548828 0.990125 -0.140185 0.001104
138.542999267578 193.458129882813 -32.858882904053 0.990125 -0.140185 0.001104
132.217987060547 148.453308105469 -35.501754760742 0.990125 -0.140185 0.001104
135.209426879883 169.738555908203 -26.178256988525 0.990125 -0.140185 0.001104
140.407653808594 206.725799560547 -39.518203735352 0.990125 -0.140185 0.001104
156.847503662109 323.701477050781 -37.498996734619 0.990125 -0.140185 0.001104
137.197463989258 183.884185791016 -27.039245605469 0.990125 -0.140185 0.001104
135.735000610352 173.478179931641 -25.360111236572 0.990125 -0.140185 0.001104
152.881713867188 295.483398437500 -36.060077667236 0.990125 -0.140185 0.001104
145.145950317383 240.440521240234 -30.422632217407 0.990125 -0.140185 0.001104
143.869995117188 231.361724853516 -38.548015594482 0.990125 -0.140185 0.001104
158.726882934570 337.073913574219 -38.557979583740 0.990125 -0.140185 0.001104
147.581192016602 257.768188476563 -39.487239837646 0.990125 -0.140185 0.001104
150.937728881836 281.651245117188 -37.940162658691 0.990125 -0.140185 0.001104
145.082839965820 239.991546630859 -38.519390106201 0.990125 -0.140185 0.001104
132.926239013672 153.492813110352 -26.799404144287 0.990125 -0.140185 0.001104
131.541992187500 143.643386840820 -37.207698822021 0.990125 -0.140185 0.001104
136.876510620117 181.600387573242 -37.229072570801 0.990125 -0.140185 0.001104
145.381317138672 242.115234375000 -35.991378784180 0.990125 -0.140185 0.001104
150.375915527344 277.653747558594 -33.744056701660 0.990125 -0.140185 0.001104
137.385787963867 185.224121093750 -29.399871826172 0.990125 -0.140185 0.001104
132.565658569336 150.927169799805 -32.956958770752 0.990125 -0.140185 0.001104
131.344863891602 142.240737915039 -40.066471099854 0.990125 -0.140185 0.001104
146.925109863281 253.099884033203 -34.319923400879 0.990125 -0.140185 0.001104
151.881103515625 288.363708496094 -34.384803771973 0.990125 -0.140185 0.001104
132.524871826172 150.636932373047 -33.965793609619 0.990125 -0.140185 0.001104
130.046157836914 132.999908447266 -23.050315856934 0.990125 -0.140185 0.001104
143.387344360352 227.927413940430 -37.045616149902 0.990125 -0.140185 0.001104
131.819747924805 145.619674682617 -35.012386322021 0.990125 -0.140185 0.001104
141.088043212891 211.567016601563 -31.493167877197 0.990125 -0.140185 0.001104
140.648040771484 208.436325073242 -33.576324462891 0.990125 -0.140185 0.001104
159.458007812500 342.276123046875 -39.393428802490 0.990125 -0.140185 0.001104
129.379898071289 128.259246826172 -31.568874359131 0.990125 -0.140185 0.001104
133.013259887695 154.112030029297 -33.535892486572 0.990125 -0.140185 0.001104
157.476623535156 328.346343994141 -20.937231063843 0.986571 -0.138570 0.086458
162.103424072266 361.106964111328 -21.193006515503 0.986571 -0.138570 0.086458
130.837158203125 138.665237426758 -21.146383285522 0.986571 -0.138570 0.086458
146.025955200195 247.027282714844 -20.688079833984 0.986571 -0.138570 0.086458
150.676254272461 280.421295166016 -20.526903152466 0.956405 -0.133237 0.259878
153.174255371094 298.730682373047 -20.248922348022 0.956405 -0.133237 0.259878
161.885437011719 360.961944580078 -20.145280838013 0.897535 -0.125796 0.422619
151.817062377930 290.019470214844 -19.937076568604 0.897535 -0.125796 0.422619
152.395553588867 294.564575195313 -19.809041976929 0.897535 -0.125796 0.422619
150.959365844727 284.677978515625 -19.709825515747 0.897535 -0.125796 0.422619
153.565032958984 304.686828613281 -19.416379928589 0.812290 -0.112696 0.572262
162.817504882813 370.103393554688 -19.499525070190 0.812290 -0.112696 0.572262
129.979034423828 136.729583740234 -19.443078994751 0.812290 -0.112696 0.572262
161.476593017578 362.882965087891 -19.109786987305 0.700729 -0.098425 0.706605
144.555435180664 241.573745727539 -19.236284255981 0.700729 -0.098425 0.706605
133.809234619141 166.764434814453 -19.006147384644 0.700729 -0.098425 0.706605
129.154510498047 133.623947143555 -19.008979797363 0.700729 -0.098425 0.706605
149.090606689453 276.944610595703 -18.835390090942 0.569077 -0.078839 0.818496
148.274246215820 271.851959228516 -18.765628814697 0.569077 -0.078839 0.818496
138.545166015625 202.729217529297 -18.755567550659 0.569077 -0.078839 0.818496
152.687805175781 306.608673095703 -18.495136260986 0.417579 -0.058110 0.906781
157.004699707031 337.803192138672 -18.464096069336 0.417579 -0.058110 0.906781
141.486511230469 226.546829223633 -18.518543243408 0.417579 -0.058110 0.906781
153.922225952148 318.760925292969 -18.323158264160 0.256506 -0.035592 0.965887
157.194915771484 342.678955078125 -18.299596786499 0.256506 -0.035592 0.965887
127.011886596680 127.986114501953 -18.296974182129 0.256506 -0.035592 0.965887
135.291015625000 186.071670532227 -18.327688217163 0.256506 -0.035592 0.965887
160.854354858398 372.931457519531 -18.215429306030 0.086670 -0.011770 0.996168
140.560440063477 227.878479003906 -18.223405838013 0.086485 -0.011745 0.996184
127.393722534180 132.017517089844 -18.249900817871 0.086485 -0.011745 0.996184
145.459075927734 291.888244628906 -18.205247879028 0.000978 0.000978 0.999999
154.443054199219 347.738281250000 -18.205245971680 0.000978 0.000978 0.999999
147.177703857422 301.470031738281 -18.205247879028 0.000978 0.000978 0.999999
141.950469970703 264.897277832031 -18.205249786377 0.000978 0.000978 0.999999
142.997680664063 269.801696777344 -18.205249786377 0.000978 0.000978 0.999999
155.986618041992 360.237396240234 -18.205244064331 0.000978 0.000978 0.999999
149.032882690430 308.911437988281 -18.205247879028 0.000978 0.000978 0.999999
140.368072509766 246.607315063477 -18.205249786377 0.000978 0.000978 0.999999
143.492523193359 272.150726318359 -18.205249786377 0.000978 0.000978 0.999999
154.698348999023 335.454223632813 -18.205245971680 0.000978 0.000978 0.999999
152.690780639648 343.664947509766 -18.205245971680 0.000978 0.000978 0.999999
141.359237670898 238.114669799805 -18.205249786377 0.000978 0.000978 0.999999
126.801216125488 153.593566894531 -18.205253601074 0.000978 0.000978 0.999999
129.778533935547 158.568237304688 -18.205253601074 0.000978 0.000978 0.999999
130.942596435547 180.009567260742 -18.205253601074 0.000978 0.000978 0.999999
128.576263427734 155.959777832031 -18.205253601074 0.000978 0.000978 0.999999
147.747329711914 281.334930419922 -18.205247879028 0.000978 0.000978 0.999999
146.915878295898 284.223815917969 -18.205247879028 0.000978 0.000978 0.999999
149.422805786133 297.549407958984 -18.205247879028 0.000978 0.000978 0.999999
130.328094482422 164.611557006836 -18.205253601074 0.000978 0.000978 0.999999
157.137054443359 350.191284179688 -18.205245971680 0.000978 0.000978 0.999999
152.222579956055 391.136108398438 -220.365325927734 0.974073 -0.226229 0.001172
152.563964843750 392.069854736328 -213.784240722656 0.838844 -0.544370 0.001351
158.640319824219 387.118011474609 -217.070236206055 -0.603278 0.797530 0.001368
157.558975219727 424.515441894531 -215.935668945313 0.730182 -0.683251 0.001380
160.559722900391 425.866363525391 -214.885162353516 -0.052343 -0.998629 0.001026
163.540679931641 419.244476318359 -219.435440063477 -0.730182 0.683251 0.001380
163.392883300781 419.085968017578 -211.456146240234 -0.730182 0.683251 0.001380
160.810302734375 406.187164306641 -218.131393432617 -0.992658 -0.120950 0.001090
158.456115722656 403.540008544922 -217.760269165039 -0.123096 0.992394 0.001089
159.106658935547 392.810699462891 48.186862945557 -0.797530 -0.603278 0.001368
154.053909301758 393.621307373047 44.668342590332 0.452981 -0.891519 0.001313
155.138565063477 386.319061279297 45.918910980225 0.226229 0.974073 0.001172
155.833847045898 386.211547851563 44.717525482178 0.052343 0.998629 0.001026
157.366180419922 386.410522460938 40.185237884521 -0.291258 0.956644 0.001219
164.524291992188 422.180480957031 45.210559844971 -0.992394 -0.123096 0.001089
157.993484497070 418.809356689453 41.371429443359 0.683251 0.730182 0.001380
155.943420410156 406.807312011719 40.635940551758 0.920595 -0.390517 0.001280
154.066772460938 429.204467773438 41.780006408691 -0.987425 0.139719 -0.073969
153.278747558594 415.458496093750 26.664737701416 -0.987425 0.139719 -0.073969
154.184356689453 430.612823486328 42.841590881348 -0.987425 0.139719 -0.073969
152.304321289063 416.180755615234 40.882587432861 -0.987425 0.139719 -0.073969
153.212844848633 421.753509521484 39.226520538330 -0.987425 0.139719 -0.073969
153.250823974609 413.163543701172 22.771299362183 -0.987425 0.139719 -0.073969
154.959701538086 422.818206787109 18.119941711426 -0.987425 0.139719 -0.073969
153.056121826172 418.210784912109 34.718162536621 -0.987425 0.139719 -0.073969
154.111694335938 420.476959228516 24.977676391602 -0.987425 0.139719 -0.073969
149.494979858398 399.380615234375 46.805747985840 -0.987425 0.139719 -0.073969
147.360717773438 385.240509033203 48.748435974121 -0.987425 0.139719 -0.073969
152.068374633789 417.395965576172 46.257286071777 -0.987425 0.139719 -0.073969
150.309066772461 401.742462158203 40.434261322021 -0.987425 0.139719 -0.073969
154.718109130859 419.580749511719 15.300030708313 -0.987425 0.139719 -0.073969
152.502059936523 409.884460449219 26.576162338257 -0.987425 0.139719 -0.073969
147.866989135742 388.155029296875 47.470878601074 -0.987425 0.139719 -0.073969
151.331161499023 405.856170654297 34.567798614502 -0.987425 0.139719 -0.073969
154.440002441406 426.616271972656 32.041210174561 -0.987425 0.139719 -0.073969
155.526748657227 430.216644287109 24.366901397705 -0.987425 0.139719 -0.073969
152.151336669922 411.390655517578 34.007980346680 -0.987425 0.139719 -0.073969
155.689178466797 424.649017333984 11.880374908447 -0.987425 0.139719 -0.073969
154.897552490234 428.885589599609 30.209396362305 -0.987425 0.139719 -0.073969
149.271972656250 397.915466308594 47.031558990479 -0.987425 0.139719 -0.073969
153.810638427734 415.222991943359 19.198595046997 -0.987425 0.139719 -0.073969
154.706832885742 418.149078369141 12.789947509766 -0.987425 0.139719 -0.073969
154.985702514648 416.443817138672 5.937949180603 -0.987425 0.139719 -0.073969
148.617279052734 390.050872802734 41.077079772949 -0.987425 0.139719 -0.073969
153.337570190430 412.557281494141 20.499427795410 -0.987425 0.139719 -0.073969
156.642181396484 427.842834472656 5.218582153320 -0.987425 0.139719 -0.073969
152.471450805664 398.083709716797 5.064607143402 -0.987425 0.139719 -0.073969
148.044418334961 384.128143310547 37.647598266602 -0.987425 0.139719 -0.073969
149.888717651367 383.228363037109 11.605319976807 -0.987425 0.139719 -0.073969
154.511413574219 417.653930664063 14.452854156494 -0.987425 0.139719 -0.073969
154.865524291992 416.935485839844 8.439302444458 -0.987425 0.139719 -0.073969
152.220443725586 396.516937255859 5.471736907959 -0.987425 0.139719 -0.073969
148.663696289063 386.024780273438 32.986701965332 -0.987425 0.139719 -0.073969
149.229095458984 382.557220458984 19.075437545776 -0.987425 0.139719 -0.073969
153.799163818359 414.132812500000 17.325639724731 -0.987425 0.139719 -0.073969
148.480133056641 388.156097412109 39.370449066162 -0.987425 0.139719 -0.073969
148.776107788086 383.569427490234 26.941299438477 -0.987425 0.139719 -0.073969
150.314666748047 387.819396972656 14.502803802490 -0.987425 0.139719 -0.073969
149.635040283203 392.682250976563 32.514881134033 -0.987425 0.139719 -0.073969
150.419586181641 387.429687500000 12.392614364624 -0.987425 0.139719 -0.073969
149.957412719727 393.153503417969 29.130033493042 -0.987425 0.139719 -0.073969
148.498504638672 384.952484130859 33.177993774414 -0.987425 0.139719 -0.073969
151.211822509766 393.369262695313 12.954350471497 -0.987425 0.139719 -0.073969
153.641281127930 403.194610595703 -4.421794891357 -0.989323 0.138712 -0.044709
158.887268066406 429.440643310547 -38.761898040771 -0.989323 0.138712 -0.044709
157.883941650391 431.109893798828 -11.465673446655 -0.989323 0.138712 -0.044709
157.894927978516 424.964935302734 -30.750766754150 -0.989323 0.138712 -0.044709
157.483749389648 426.567230224609 -16.718381881714 -0.989323 0.138712 -0.044709
156.957763671875 419.344329833984 -27.504167556763 -0.989323 0.138712 -0.044709
154.094604492188 403.218811035156 -14.342846870422 -0.989323 0.138712 -0.044709
156.861053466797 423.570312500000 -12.275535583496 -0.989323 0.138712 -0.044709
155.501022338867 416.625427246094 -3.808406829834 -0.989323 0.138712 -0.044709
156.031784057617 422.912353515625 3.970981597900 -0.989323 0.138712 -0.044709
156.860321044922 420.916809082031 -20.482105255127 -0.989323 0.138712 -0.044709
154.364624023438 406.380371093750 -10.499541282654 -0.989323 0.138712 -0.044709
155.714996337891 417.326141357422 -6.355236053467 -0.989323 0.138712 -0.044709
156.491302490234 422.510162353516 -7.407644271851 -0.989323 0.138712 -0.044709
156.813323974609 423.787506103516 -10.549823760986 -0.989323 0.138712 -0.044709
153.635787963867 401.399963378906 -9.862453460693 -0.989323 0.138712 -0.044709
156.635574340820 417.791442871094 -25.211870193481 -0.989323 0.138712 -0.044709
155.084793090820 413.475524902344 -4.391664505005 -0.989323 0.138712 -0.044709
155.902435302734 419.374633789063 -4.139804840088 -0.989323 0.138712 -0.044709
154.354446411133 411.047912597656 4.189596176147 -0.989323 0.138712 -0.044709
156.097503662109 414.593078613281 -23.259204864502 -0.989323 0.138712 -0.044709
155.238189697266 410.061584472656 -18.353847503662 -0.989323 0.138712 -0.044709
158.374176025391 427.292846679688 -34.104244232178 -0.989323 0.138712 -0.044709
156.441848754883 413.401062011719 -34.546001434326 -0.989323 0.138712 -0.044709
155.258987426758 407.407989501953 -27.035989761353 -0.989323 0.138712 -0.044709
153.294952392578 394.565917968750 -23.525672912598 -0.989323 0.138712 -0.044709
151.378265380859 386.600982666016 -5.945147991180 -0.989323 0.138712 -0.044709
155.877243041992 409.047119140625 -35.589138031006 -0.989323 0.138712 -0.044709
156.985839843750 416.936553955078 -35.584728240967 -0.989323 0.138712 -0.044709
152.427032470703 391.637817382813 -13.461707115173 -0.989323 0.138712 -0.044709
158.119979858398 424.296173095703 -37.785675048828 -0.989323 0.138712 -0.044709
155.332672119141 408.914215087891 -23.992839813232 -0.989323 0.138712 -0.044709
154.355117797852 397.314483642578 -38.384513854980 -0.989323 0.138712 -0.044709
155.396301269531 406.809143066406 -31.919271469116 -0.989323 0.138712 -0.044709
151.642303466797 383.327545166016 -21.911476135254 -0.989323 0.138712 -0.044709
151.404296875000 385.978820800781 -8.447174072266 -0.989323 0.138712 -0.044709
154.512588500977 397.969024658203 -39.828685760498 -0.989323 0.138712 -0.044709
150.890930175781 385.197082519531 0.450428277254 -0.989323 0.138712 -0.044709
152.112274169922 384.282836914063 -29.314323425293 -0.989323 0.138712 -0.044709
157.311386108398 419.697296142578 -34.207778930664 -0.989323 0.138712 -0.044709
154.245620727539 396.906219482422 -37.235469818115 -0.989323 0.138712 -0.044709
153.103988647461 391.157928466797 -29.875942230225 -0.989323 0.138712 -0.044709
157.407791137695 420.220031738281 -34.713413238525 -0.989323 0.138712 -0.044709
154.803726196289 404.543304443359 -25.874956130981 -0.989323 0.138712 -0.044709
157.837707519531 423.586486816406 -33.760456085205 -0.989323 0.138712 -0.044709
155.293457031250 408.578430175781 -24.168453216553 -0.989323 0.138712 -0.044709
156.837387084961 412.923187255859 -52.950531005859 -0.990111 0.139531 -0.014511
159.355133056641 428.119598388672 -78.236869812012 -0.990111 0.139531 -0.014511
154.413543701172 396.501861572266 -45.274284362793 -0.990111 0.139531 -0.014511
154.006423950195 393.839874267578 -43.089469909668 -0.990111 0.139531 -0.014511
155.671096801758 405.386047363281 -45.866905212402 -0.990111 0.139531 -0.014511
155.963684082031 407.179382324219 -48.551010131836 -0.990111 0.139531 -0.014511
159.213623046875 431.079589843750 -41.335617065430 -0.990111 0.139531 -0.014511
156.823410034180 413.937805175781 -42.586486816406 -0.990111 0.139531 -0.014511
159.371032714844 430.630065917969 -55.935272216797 -0.990111 0.139531 -0.014511
155.453186035156 403.952514648438 -44.778232574463 -0.990111 0.139531 -0.014511
158.098907470703 422.835327148438 -44.243118286133 -0.990111 0.139531 -0.014511
157.298187255859 414.366882324219 -70.021644592285 -0.990111 0.139531 -0.014511
153.718505859375 391.388000488281 -46.840576171875 -0.990111 0.139531 -0.014511
158.634689331055 424.395141601563 -65.197074890137 -0.990111 0.139531 -0.014511
157.103256225586 415.681335449219 -44.890628814697 -0.990111 0.139531 -0.014511
153.387893676758 389.270355224609 -44.656192779541 -0.990111 0.139531 -0.014511
155.971252441406 406.494812011719 -55.420764923096 -0.990111 0.139531 -0.014511
159.012557983398 428.231781005859 -54.517303466797 -0.990111 0.139531 -0.014511
155.864303588867 405.442291259766 -58.132419586182 -0.990111 0.139531 -0.014511
158.546249389648 426.223052978516 -42.338256835938 -0.990111 0.139531 -0.014511
159.360961914063 429.548095703125 -65.333610534668 -0.990111 0.139531 -0.014511
159.241928100586 427.248199462891 -78.850158691406 -0.990111 0.139531 -0.014511
158.243392944336 423.301422119141 -49.470584869385 -0.990111 0.139531 -0.014511
153.589447021484 386.447998046875 -84.252578735352 -0.990111 0.139531 -0.014511
153.722290039063 388.032135009766 -78.309509277344 -0.990111 0.139531 -0.014511
155.556106567383 402.334381103516 -66.644172668457 -0.990111 0.139531 -0.014511
157.765701293945 416.672088623047 -79.521560668945 -0.990111 0.139531 -0.014511
157.739471435547 416.716644287109 -77.370910644531 -0.990111 0.139531 -0.014511
156.583694458008 409.450531005859 -68.463157653809 -0.990111 0.139531 -0.014511
152.964477539063 383.668518066406 -68.740661621094 -0.990111 0.139531 -0.014511
153.081573486328 383.091186523438 -81.862281799316 -0.990111 0.139531 -0.014511
158.725463867188 423.113830566406 -83.125106811523 -0.990111 0.139531 -0.014511
153.751113891602 390.975006103516 -52.840427398682 -0.990111 0.139531 -0.014511
154.840988159180 396.957336425781 -69.329551696777 -0.990111 0.139531 -0.014511
152.953201293945 383.540222167969 -69.188858032227 -0.990111 0.139531 -0.014511
158.646118164063 422.637390136719 -82.305061340332 -0.990111 0.139531 -0.014511
158.016296386719 418.353393554688 -80.467811584473 -0.990111 0.139531 -0.014511
154.241806030273 394.513885498047 -52.399242401123 -0.990111 0.139531 -0.014511
158.772964477539 423.472625732422 -82.931411743164 -0.990111 0.139531 -0.014511
153.498077392578 386.155395507813 -80.926750183105 -0.990111 0.139531 -0.014511
157.100738525391 412.080505371094 -78.221023559570 -0.990111 0.139531 -0.014511
153.354736328125 388.523956298828 -49.405460357666 -0.990111 0.139531 -0.014511
153.243972778320 386.709899902344 -58.949432373047 -0.990111 0.139531 -0.014511
155.141250610352 398.336883544922 -76.371162414551 -0.990111 0.139531 -0.014511
153.551193237305 389.084655761719 -57.193695068359 -0.990111 0.139531 -0.014511
156.132186889648 406.707824707031 -64.090591430664 -0.990111 0.139531 -0.014511
158.082901000977 421.848846435547 -119.048980712891 -0.990111 0.139531 0.014511
159.112380981445 426.872894287109 -97.644638061523 -0.990111 0.139531 0.014511
153.301422119141 384.410705566406 -87.270278930664 -0.990111 0.139531 0.014511
156.248580932617 406.376434326172 -96.533218383789 -0.990111 0.139531 0.014511
156.291229248047 407.153015136719 -100.934020996094 -0.990111 0.139531 0.014511
159.439773559570 429.454406738281 -99.987731933594 -0.990111 0.139531 0.014511
159.030151367188 427.844146728516 -112.123001098633 -0.990111 0.139531 0.014511
158.779327392578 424.816802978516 -100.562454223633 -0.990111 0.139531 0.014511
158.305419921875 421.607025146484 -102.071357727051 -0.990111 0.139531 0.014511
156.606506347656 410.573699951172 -111.885871887207 -0.990111 0.139531 0.014511
158.514007568359 425.294494628906 -122.567260742188 -0.990111 0.139531 0.014511
155.667526245117 402.293182373047 -97.008125305176 -0.990111 0.139531 0.014511
155.821975708008 402.850128173828 -91.965621948242 -0.990111 0.139531 0.014511
158.787246704102 425.628509521484 -107.588668823242 -0.990111 0.139531 0.014511
155.715988159180 401.566314697266 -87.038169860840 -0.990111 0.139531 0.014511
159.228500366211 429.396636962891 -113.434471130371 -0.990111 0.139531 0.014511
