//X Y Z Nx Ny Nz
622
62.587532043457 -23.189834594727 -2.446568489075 0.000978 -0.999999 0.000978
91.900283813477 -23.189834594727 1.906589508057 0.000978 -0.999999 0.000978
-12.084350585938 -23.189834594727 -4.726030349731 0.000978 -0.999999 0.000978
124.987052917480 -23.189834594727 -1.765580177307 0.000978 -0.999999 0.000978
130.520233154297 -23.189834594727 0.970635414124 0.000978 -0.999999 0.000978
83.442283630371 -23.189834594727 -2.982974052429 0.000978 -0.999999 0.000978
112.784744262695 -23.189834594727 -0.696937561035 0.000978 -0.999999 0.000978
-8.115127563477 -23.189834594727 -11.110417366028 0.000978 -0.999999 0.000978
109.771156311035 -23.189834594727 -2.793643951416 0.000978 -0.999999 0.000978
20.374237060547 -23.189834594727 0.060934066772 0.000978 -0.999999 0.000978
-108.928604125977 -23.189834594727 -10.113397598267 0.000978 -0.999999 0.000978
-97.438598632813 -23.189834594727 -9.467566490173 0.000978 -0.999999 0.000978
-25.468627929688 -23.189834594727 -4.713743209839 0.000978 -0.999999 0.000978
122.724243164063 -23.189834594727 5.937949180603 0.000978 -0.999999 0.000978
93.849472045898 -23.189834594727 -10.634812355042 0.000978 -0.999999 0.000978
-17.071334838867 -23.189834594727 -7.921362876892 0.000978 -0.999999 0.000978
-77.954025268555 -23.189834594727 -10.128639221191 0.000978 -0.999999 0.000978
-88.571029663086 -23.189834594727 -8.526085853577 0.000978 -0.999999 0.000978
112.040237426758 -23.189834594727 5.312783241272 0.000978 -0.999999 0.000978
90.145324707031 -23.189834594727 4.517402648926 0.000978 -0.999999 0.000978
17.221122741699 -23.189834594727 -4.497844696045 0.000978 -0.999999 0.000978
63.309204101563 -23.189834594727 -5.902942180634 0.000978 -0.999999 0.000978
48.189048767090 -23.189834594727 -0.228045463562 0.000978 -0.999999 0.000978
86.508811950684 -23.189834594727 -2.135732650757 0.000978 -0.999999 0.000978
-93.291381835938 -23.189834594727 -10.733210563660 0.000978 -0.999999 0.000978
117.788696289063 -23.189834594727 -4.454267978668 0.000978 -0.999999 0.000978
-72.856124877930 -23.189834594727 -9.081236839294 0.000978 -0.999999 0.000978
98.844268798828 -23.189834594727 -4.121542930603 0.000978 -0.999999 0.000978
75.085792541504 -23.189834594727 0.574344635010 0.000978 -0.999999 0.000978
19.029434204102 -23.189834594727 -2.785863876343 0.000978 -0.999999 0.000978
-70.722518920898 -23.189834594727 -9.362836837769 0.000978 -0.999999 0.000978
103.067184448242 -23.189834594727 -4.780239105225 0.000978 -0.999999 0.000978
103.045028686523 -23.189834594727 -6.211387157440 0.000978 -0.999999 0.000978
110.130805969238 -23.189834594727 2.721896171570 0.000978 -0.999999 0.000978
101.360565185547 -23.189834594727 -9.740010261536 0.000978 -0.999999 0.000978
96.717544555664 -23.189834594727 1.817148208618 0.000978 -0.999999 0.000978
110.867118835449 -23.189834594727 5.769352912903 0.000978 -0.999999 0.000978
37.965362548828 -23.189834594727 -6.643838882446 0.000978 -0.999999 0.000978
-98.376480102539 -23.189834594727 -10.233065605164 0.000978 -0.999999 0.000978
70.385826110840 -23.189834594727 -5.676750183105 0.000978 -0.999999 0.000978
14.177665710449 -23.189834594727 -9.173634529114 0.000978 -0.999999 0.000978
59.073059082031 -23.189834594727 -2.937953948975 0.000978 -0.999999 0.000978
84.112747192383 -23.189834594727 2.699836730957 0.000978 -0.999999 0.000978
-17.270217895508 -23.189834594727 -7.374285221100 0.000978 -0.999999 0.000978
-24.172988891602 -23.189834594727 -3.783010482788 0.000978 -0.999999 0.000978
68.955543518066 -23.189834594727 1.553468704224 0.000978 -0.999999 0.000978
43.538978576660 -23.189834594727 -6.325851917267 0.000978 -0.999999 0.000978
-31.099761962891 -23.189834594727 -10.270411491394 0.000978 -0.999999 0.000978
-42.652450561523 -23.189834594727 -6.060302734375 0.000978 -0.999999 0.000978
12.531929016113 -23.189834594727 -10.305639266968 0.000978 -0.999999 0.000978
122.970252990723 -23.189834594727 -2.232866287231 0.000978 -0.999999 0.000978
48.431610107422 -23.189834594727 -2.853930473328 0.000978 -0.999999 0.000978
100.780395507813 -23.189834594727 0.927645683289 0.000978 -0.999999 0.000978
131.177383422852 -23.189834594727 -6.334517478943 0.000978 -0.999999 0.000978
85.409355163574 -23.189834594727 -7.561272621155 0.000978 -0.999999 0.000978
120.827346801758 -23.189834594727 -1.628527641296 0.000978 -0.999999 0.000978
40.511985778809 -23.189834594727 1.624918937683 0.000978 -0.999999 0.000978
87.764465332031 -23.189834594727 2.658389091492 0.000978 -0.999999 0.000978
75.023071289063 -23.189834594727 -9.300994873047 0.000978 -0.999999 0.000978
86.828994750977 -23.189834594727 1.872406005859 0.000978 -0.999999 0.000978
94.022819519043 -23.189834594727 -8.201175689697 0.000978 -0.999999 0.000978
134.381011962891 -23.189834594727 6.095463752747 0.000978 -0.999999 0.000978
115.336227416992 -23.189834594727 0.152930259705 0.000978 -0.999999 0.000978
34.772972106934 -23.189834594727 -3.666647434235 0.000978 -0.999999 0.000978
67.080360412598 -23.189834594727 -5.994853973389 0.000978 -0.999999 0.000978
35.923034667969 -23.189834594727 -2.769388198853 0.000978 -0.999999 0.000978
-40.240768432617 -23.189834594727 -7.783239364624 0.000978 -0.999999 0.000978
86.387451171875 -23.189834594727 -10.133077621460 0.000978 -0.999999 0.000978
8.258773803711 -23.189834594727 -3.396738529205 0.000978 -0.999999 0.000978
41.152084350586 -23.189834594727 -1.462217330933 0.000978 -0.999999 0.000978
69.743339538574 -23.189834594727 2.570940971375 0.000978 -0.999999 0.000978
53.773498535156 -23.189834594727 -5.419034004211 0.000978 -0.999999 0.000978
50.471794128418 -23.189834594727 -7.006583690643 0.000978 -0.999999 0.000978
111.923439025879 -23.189834594727 -2.359015464783 0.000978 -0.999999 0.000978
46.314208984375 -23.189834594727 -2.595903396606 0.000978 -0.999999 0.000978
-64.289703369141 -23.189834594727 -7.210762023926 0.000978 -0.999999 0.000978
120.267181396484 -23.189834594727 1.662858009338 0.000978 -0.999999 0.000978
72.369812011719 -23.189834594727 -10.074434280396 0.000978 -0.999999 0.000978
97.564971923828 -23.189834594727 3.971107482910 0.000978 -0.999999 0.000978
93.380172729492 -23.189834594727 0.824775695801 0.000978 -0.999999 0.000978
-28.152496337891 -23.189834594727 -6.545903682709 0.000978 -0.999999 0.000978
-30.476913452148 -23.189834594727 -6.163594245911 0.000978 -0.999999 0.000978
27.246299743652 -23.189834594727 -3.609977245331 0.000978 -0.999999 0.000978
26.972282409668 -23.189834594727 -10.021533966064 0.000978 -0.999999 0.000978
-33.340469360352 -23.189834594727 -9.073388099670 0.000978 -0.999999 0.000978
79.313758850098 -23.189834594727 -6.686538696289 0.000978 -0.999999 0.000978
55.969764709473 -23.189834594727 -10.480444908142 0.000978 -0.999999 0.000978
132.459854125977 -23.189834594727 1.496017456055 0.000978 -0.999999 0.000978
-31.901565551758 -23.189834594727 -7.976494312286 0.000978 -0.999999 0.000978
-2.493698120117 -23.189834594727 -11.292786598206 0.000978 -0.999999 0.000978
124.355361938477 -23.189834594727 5.505927085876 0.000978 -0.999999 0.000978
27.246780395508 -23.189834594727 0.081084251404 0.000978 -0.999999 0.000978
39.841949462891 -23.189834594727 -1.692637443542 0.000978 -0.999999 0.000978
-14.709243774414 -23.189834594727 -3.356189727783 0.000978 -0.999999 0.000978
33.774726867676 -23.189834594727 -6.076576232910 0.000978 -0.999999 0.000978
24.231391906738 -23.189834594727 -1.791347503662 0.000978 -0.999999 0.000978
110.430229187012 -23.189834594727 1.623834609985 0.000978 -0.999999 0.000978
-8.621887207031 -23.189834594727 -4.083282470703 0.000978 -0.999999 0.000978
49.845367431641 -23.189834594727 -10.181035995483 0.000978 -0.999999 0.000978
72.871368408203 -23.189834594727 0.317395210266 0.000978 -0.999999 0.000978
-5.532882690430 -23.189834594727 -2.403417587280 0.000978 -0.999999 0.000978
26.468643188477 -23.189834594727 0.390942573547 0.000978 -0.999999 0.000978
73.077911376953 -23.189834594727 -4.040208339691 0.000978 -0.999999 0.000978
29.889411926270 -23.189834594727 -6.558732509613 0.000978 -0.999999 0.000978
78.055175781250 -23.189834594727 -1.025628089905 0.000978 -0.999999 0.000978
40.932373046875 -23.189834594727 -4.735654354095 0.000978 -0.999999 0.000978
-42.851882934570 -23.189834594727 -10.559546470642 0.000978 -0.999999 0.000978
127.336807250977 -23.189834594727 -3.480641365051 0.000978 -0.999999 0.000978
34.403144836426 -23.189834594727 -11.240373611450 0.000978 -0.999999 0.000978
-33.519317626953 -23.189834594727 -8.642444610596 0.000978 -0.999999 0.000978
130.932312011719 -23.189834594727 -5.224867820740 0.000978 -0.999999 0.000978
59.169425964355 -23.189834594727 -6.608606815338 0.000978 -0.999999 0.000978
73.151779174805 -23.189834594727 -10.088287353516 0.000978 -0.999999 0.000978
26.748168945313 -23.189834594727 -5.276401519775 0.000978 -0.999999 0.000978
14.287574768066 -23.189834594727 -7.235739707947 0.000978 -0.999999 0.000978
52.431930541992 -23.189834594727 -5.512698650360 0.000978 -0.999999 0.000978
105.374549865723 -23.189834594727 4.073456764221 0.000978 -0.999999 0.000978
118.701705932617 -23.189834594727 0.148869514465 0.000978 -0.999999 0.000978
86.275222778320 -23.189834594727 -6.219451904297 0.000978 -0.999999 0.000978
128.054901123047 -23.189834594727 -2.302731513977 0.000978 -0.999999 0.000978
67.025909423828 -23.189834594727 -9.084873199463 0.000978 -0.999999 0.000978
2.295379638672 -23.189834594727 -8.677577972412 0.000978 -0.999999 0.000978
120.412223815918 -23.189834594727 -5.070595741272 0.000978 -0.999999 0.000978
9.396400451660 -23.189834594727 -1.774515151978 0.000978 -0.999999 0.000978
134.949401855469 -23.189834594727 3.575046539307 0.000978 -0.999999 0.000978
89.879425048828 -23.189834594727 -1.488986015320 0.000978 -0.999999 0.000978
60.054382324219 -23.189834594727 -9.106549263000 0.000978 -0.999999 0.000978
112.895225524902 -23.189834594727 -7.304469585419 0.000978 -0.999999 0.000978
105.182975769043 -23.189834594727 -10.938678741455 0.000978 -0.999999 0.000978
41.199798583984 -23.189834594727 -8.640189170837 0.000978 -0.999999 0.000978
-0.436477661133 -23.189834594727 -3.612059593201 0.000978 -0.999999 0.000978
19.733169555664 -23.189834594727 -2.254332542419 0.000978 -0.999999 0.000978
-48.309677124023 -23.189834594727 -5.453838348389 0.000978 -0.999999 0.000978
35.056861877441 -23.189834594727 1.221390724182 0.000978 -0.999999 0.000978
89.540405273438 -23.189834594727 1.008414268494 0.000978 -0.999999 0.000978
54.114631652832 -23.189834594727 0.103980064392 0.000978 -0.999999 0.000978
-88.299346923828 -23.189834594727 -10.396769523621 0.000978 -0.999999 0.000978
134.779968261719 -23.189834594727 -4.778497695923 0.000978 -0.999999 0.000978
95.346679687500 -23.189834594727 -7.424111366272 0.000978 -0.999999 0.000978
81.422225952148 -23.189834594727 4.650956153870 0.000978 -0.999999 0.000978
-65.781295776367 -23.189834594727 -6.623549461365 0.000978 -0.999999 0.000978
93.999725341797 -23.189834594727 -4.099402427673 0.000978 -0.999999 0.000978
54.671943664551 -23.189834594727 -4.028665065765 0.000978 -0.999999 0.000978
3.297637939453 -23.189834594727 -3.083977699280 0.000978 -0.999999 0.000978
60.867065429688 -23.189834594727 -4.792156696320 0.000978 -0.999999 0.000978
95.758506774902 -23.189834594727 -2.845002174377 0.000978 -0.999999 0.000978
21.340492248535 -23.189834594727 -11.280800819397 0.000978 -0.999999 0.000978
96.909576416016 -23.189834594727 -1.416466712952 0.000978 -0.999999 0.000978
-34.681365966797 -23.189834594727 -4.258790969849 0.000978 -0.999999 0.000978
-115.577377319336 -23.189834594727 -9.954254150391 0.000978 -0.999999 0.000978
119.396469116211 -23.189834594727 -7.980538368225 0.000978 -0.999999 0.000978
44.198432922363 -23.189834594727 -0.715359687805 0.000978 -0.999999 0.000978
-72.897491455078 -23.189834594727 -10.697618484497 0.000978 -0.999999 0.000978
-8.363891601563 -23.189834594727 -4.275563240051 0.000978 -0.999999 0.000978
101.912887573242 -23.189834594727 -3.323130607605 0.000978 -0.999999 0.000978
5.434143066406 -23.189834594727 -1.659445762634 0.000978 -0.999999 0.000978
93.685516357422 -23.189834594727 -3.540201187134 0.000978 -0.999999 0.000978
29.892486572266 -23.189834594727 -10.048069953918 0.000978 -0.999999 0.000978
-74.579528808594 -23.189834594727 -7.737321853638 0.000978 -0.999999 0.000978
64.845512390137 -23.189834594727 -6.052155494690 0.000978 -0.999999 0.000978
128.552108764648 -23.189834594727 6.804221153259 0.000978 -0.999999 0.000978
-1.604141235352 -23.189834594727 -7.861939430237 0.000978 -0.999999 0.000978
59.433486938477 -23.189834594727 2.881220817566 0.000978 -0.999999 0.000978
101.415863037109 -23.189834594727 -9.561823844910 0.000978 -0.999999 0.000978
43.138862609863 -23.189834594727 -8.875041961670 0.000978 -0.999999 0.000978
-43.588699340820 -23.189834594727 -8.296392440796 0.000978 -0.999999 0.000978
45.433235168457 -23.189834594727 -8.514881134033 0.000978 -0.999999 0.000978
-49.002700805664 -23.189834594727 -9.710846900940 0.000978 -0.999999 0.000978
-27.287857055664 -23.189834594727 -4.344316005707 0.000978 -0.999999 0.000978
57.170867919922 -23.189834594727 1.572285652161 0.000978 -0.999999 0.000978
104.457763671875 -23.189834594727 -7.532970428467 0.000978 -0.999999 0.000978
119.386299133301 -23.189834594727 2.168195724487 0.000978 -0.999999 0.000978
-15.360351562500 -23.189834594727 -6.072869300842 0.000978 -0.999999 0.000978
120.909439086914 -23.189834594727 -4.409280776978 0.000978 -0.999999 0.000978
111.595680236816 -23.189834594727 -6.343413829803 0.000978 -0.999999 0.000978
-41.155532836914 -23.189834594727 -5.118575572968 0.000978 -0.999999 0.000978
-46.693923950195 -23.189834594727 -9.460289001465 0.000978 -0.999999 0.000978
75.453155517578 -23.189834594727 3.549388885498 0.000978 -0.999999 0.000978
-90.020614624023 -23.189834594727 -9.579705238342 0.000978 -0.999999 0.000978
135.000015258789 -9.292476654053 -0.176125347614 0.999999 0.000978 0.000978
135.000015258789 -15.347442626953 -5.193951606750 0.999999 0.000978 0.000978
135.000015258789 -19.140760421753 -7.550714969635 0.999999 0.000978 0.000978
135.000015258789 -19.724893569946 -6.221930027008 0.999999 0.000978 0.000978
135.000015258789 -20.612516403198 -7.302856445313 0.999999 0.000978 0.000978
135.000015258789 -21.406253814697 -4.545456886292 0.999999 0.000978 0.000978
135.000015258789 -22.729028701782 -9.991583824158 0.999999 0.000978 0.000978
135.000015258789 -22.362115859985 -1.135721921921 0.999999 0.000978 0.000978
135.000015258789 -19.678436279297 1.627605915070 0.999999 0.000978 0.000978
135.000015258789 -21.893207550049 -7.182178974152 0.999999 0.000978 0.000978
135.000015258789 -22.296585083008 -2.042194604874 0.999999 0.000978 0.000978
135.000015258789 -22.644968032837 3.190325737000 0.999999 0.000978 0.000978
135.000015258789 -20.895029067993 2.852009773254 0.999999 0.000978 0.000978
135.000015258789 -22.843132019043 0.026660263538 0.999999 0.000978 0.000978
135.000015258789 -21.817564010620 -5.450118541718 0.999999 0.000978 0.000978
135.000015258789 -22.539644241333 2.940227508545 0.999999 0.000978 0.000978
135.000015258789 -20.440263748169 -5.310299396515 0.999999 0.000978 0.000978
135.000015258789 -21.316238403320 5.279896736145 0.999999 0.000978 0.000978
135.000015258789 -18.083574295044 0.659067988396 0.999999 0.000978 0.000978
135.000015258789 -17.267040252686 1.345672845840 0.999999 0.000978 0.000978
135.000015258789 15.920597076416 4.330195903778 0.999999 0.000978 0.000978
135.000015258789 -20.869266510010 -8.968708038330 0.999999 0.000978 0.000978
135.000015258789 -17.693603515625 -4.871366024017 0.999999 0.000978 0.000978
135.000015258789 -15.892363548279 2.283918857574 0.999999 0.000978 0.000978
135.000015258789 13.549575805664 4.409448146820 0.999999 0.000978 0.000978
135.000015258789 20.281566619873 -8.870034217834 0.999999 0.000978 0.000978
135.000015258789 8.155612945557 -3.862445831299 0.999999 0.000978 0.000978
135.000015258789 14.575403213501 -6.554478168488 0.999999 0.000978 0.000978
135.000015258789 -19.108169555664 5.620451450348 0.999999 0.000978 0.000978
135.000015258789 -17.864896774292 4.871343612671 0.999999 0.000978 0.000978
135.000015258789 -10.617360115051 1.204873323441 0.999999 0.000978 0.000978
135.000015258789 -7.913706779480 0.786868691444 0.999999 0.000978 0.000978
135.000015258789 -9.515214920044 -0.005030341446 0.999999 0.000978 0.000978
135.000015258789 7.515668869019 2.248539447784 0.999999 0.000978 0.000978
135.000015258789 5.413339614868 0.900080084801 0.999999 0.000978 0.000978
135.000015258789 13.579870223999 3.665642976761 0.999999 0.000978 0.000978
135.000015258789 -1.385080575943 -3.177802085876 0.999999 0.000978 0.000978
135.000015258789 -3.808196067810 -2.697274923325 0.999999 0.000978 0.000978
135.000015258789 -10.210183143616 -1.809721708298 0.999999 0.000978 0.000978
135.000015258789 -6.532725811005 -1.426975250244 0.999999 0.000978 0.000978
135.000015258789 -5.734712123871 -1.001784920692 0.999999 0.000978 0.000978
135.000015258789 -1.321009159088 -0.627977550030 0.999999 0.000978 0.000978
135.000015258789 7.735979080200 -7.544071197510 0.999999 0.000978 0.000978
135.000015258789 13.911422729492 -8.884259223938 0.999999 0.000978 0.000978
135.000015258789 -4.733282089233 -0.092618748546 0.999999 0.000978 0.000978
135.000015258789 8.945956230164 -2.985250234604 0.999999 0.000978 0.000978
135.000015258789 18.916736602783 -8.589921951294 0.999999 0.000978 0.000978
135.000015258789 19.585342407227 -8.952009201050 0.999999 0.000978 0.000978
135.000015258789 8.637006759644 -5.479993343353 0.999999 0.000978 0.000978
135.000015258789 6.410979270935 -4.990079879761 0.999999 0.000978 0.000978
135.000015258789 -4.473556041718 -3.184321403503 0.999999 0.000978 0.000978
135.000015258789 20.794637680054 -9.897041320801 0.999999 0.000978 0.000978
135.000015258789 -1.866115570068 -4.366528034210 0.999999 0.000978 0.000978
135.000015258789 7.438634872437 -6.662056446075 0.999999 0.000978 0.000978
135.000015258789 -0.862373352051 -4.703758239746 0.999999 0.000978 0.000978
135.000015258789 11.117615699768 -7.227167129517 0.999999 0.000978 0.000978
135.000015258789 3.938176155090 -4.852710723877 0.999999 0.000978 0.000978
135.000015258789 8.298739433289 -7.299321651459 0.999999 0.000978 0.000978
135.000015258789 -3.581651210785 -4.567008018494 0.999999 0.000978 0.000978
135.000015258789 -1.982328176498 -5.403770923615 0.999999 0.000978 0.000978
135.000015258789 12.344031333923 -8.332749366760 0.999999 0.000978 0.000978
135.000015258789 0.658721923828 -6.637204170227 0.999999 0.000978 0.000978
135.000015258789 -6.555707931519 -5.259183883667 0.999999 0.000978 0.000978
135.000015258789 4.382356166840 -7.515740394592 0.999999 0.000978 0.000978
135.000015258789 -6.665247440338 -8.601531028748 0.999999 0.000978 0.000978
135.000015258789 -7.005181312561 -7.622797012329 0.999999 0.000978 0.000978
135.000015258789 -2.456545114517 -10.676115989685 0.999999 0.000978 0.000978
135.000015258789 4.171633720398 -9.874856948853 0.999999 0.000978 0.000978
135.000015258789 -6.943277359009 -8.196297645569 0.999999 0.000978 0.000978
135.000015258789 -11.065015792847 -7.248998641968 0.999999 0.000978 0.000978
135.000015258789 -20.456003189087 -11.072248458862 0.999999 0.000978 0.000978
135.000015258789 -6.220183849335 -7.802000999451 0.999999 0.000978 0.000978
135.000015258789 4.411675453186 -8.320212364197 0.999999 0.000978 0.000978
135.000015258789 -22.245805740356 -11.139378547668 0.999999 0.000978 0.000978
135.000015258789 -12.197078704834 -10.024790763855 0.999999 0.000978 0.000978
135.000015258789 -11.059819221497 -10.176401138306 0.999999 0.000978 0.000978
135.000015258789 -8.950279235840 -7.442836284637 0.999999 0.000978 0.000978
135.000015258789 -17.869649887085 -9.369722366333 0.999999 0.000978 0.000978
135.000015258789 5.340718269348 -9.551639556885 0.999999 0.000978 0.000978
135.000015258789 -4.451156616211 -7.338988780975 0.999999 0.000978 0.000978
135.000015258789 24.444650650024 -11.079075813293 0.999999 0.000978 0.000978
135.000015258789 -1.922429084778 -9.364494323730 0.999999 0.000978 0.000978
135.000015258789 -11.983636856079 -9.777841567993 0.999999 0.000978 0.000978
135.000015258789 -16.011188507080 -6.986321449280 0.999999 0.000978 0.000978
135.000015258789 -11.405452728271 -5.440136909485 0.999999 0.000978 0.000978
135.000015258789 -5.500547885895 -7.386997222900 0.999999 0.000978 0.000978
135.000015258789 -4.814705371857 -8.136308670044 0.999999 0.000978 0.000978
135.000015258789 -0.460164546967 -7.687685012817 0.999999 0.000978 0.000978
135.000015258789 -17.013145446777 -10.341434478760 0.999999 0.000978 0.000978
135.000015258789 -3.899546146393 -9.170769691467 0.999999 0.000978 0.000978
135.000015258789 -10.381353378296 -6.970615386963 0.999999 0.000978 0.000978
135.000015258789 -15.322134017944 -7.799078941345 0.999999 0.000978 0.000978
135.000015258789 -1.917050242424 -10.219402313232 0.999999 0.000978 0.000978
135.000015258789 -16.225215911865 -7.500059604645 0.999999 0.000978 0.000978
135.000015258789 18.184646606445 -11.135884284973 0.999999 0.000978 0.000978
135.000015258789 -15.316132545471 -9.775163650513 0.999999 0.000978 0.000978
135.000015258789 -8.128461837769 -11.062115669250 0.999999 0.000978 0.000978
135.000015258789 -1.679193973541 -8.233063697815 0.999999 0.000978 0.000978
135.000015258789 -9.987840652466 -5.402483940125 0.999999 0.000978 0.000978
135.000015258789 -21.026462554932 -10.259164810181 0.999999 0.000978 0.000978
135.000015258789 -17.696796417236 -7.543939113617 0.999999 0.000978 0.000978
135.000015258789 -3.327236413956 2.225242853165 0.999999 0.000978 0.000978
135.000015258789 -11.897092819214 2.090207099915 0.999999 0.000978 0.000978
135.000015258789 -12.234917640686 2.478054285049 0.999999 0.000978 0.000978
135.000015258789 -13.891901016235 4.981421470642 0.999999 0.000978 0.000978
135.000015258789 -9.605290412903 1.742489099503 0.999999 0.000978 0.000978
135.000015258789 -19.262187957764 7.034489631653 0.999999 0.000978 0.000978
135.000015258789 -11.447628974915 3.491977214813 0.999999 0.000978 0.000978
135.000015258789 -18.439151763916 5.931984901428 0.999999 0.000978 0.000978
135.000015258789 -12.942924499512 5.199736595154 0.999999 0.000978 0.000978
135.000015258789 -1.219222068787 1.249565005302 0.999999 0.000978 0.000978
135.000015258789 -7.424030780792 1.438191413879 0.999999 0.000978 0.000978
135.000015258789 11.999909400940 6.365796089172 0.999999 0.000978 0.000978
135.000015258789 -5.699325084686 6.898621559143 0.999999 0.000978 0.000978
135.000015258789 7.081092357635 7.241950035095 0.999999 0.000978 0.000978
135.000015258789 -14.607148170471 7.638394355774 0.999999 0.000978 0.000978
135.000015258789 -13.401686668396 7.254457950592 0.999999 0.000978 0.000978
135.000015258789 -1.343833446503 7.191681861877 0.999999 0.000978 0.000978
135.000015258789 5.651539802551 5.523879051208 0.999999 0.000978 0.000978
135.000015258789 18.919605255127 8.620300292969 0.999999 0.000978 0.000978
135.000015258789 -3.263567447662 7.403328418732 0.999999 0.000978 0.000978
135.000015258789 16.444892883301 7.741352081299 0.999999 0.000978 0.000978
135.000015258789 6.323204040527 2.994783878326 0.999999 0.000978 0.000978
135.000015258789 -14.429622650146 6.268184661865 0.999999 0.000978 0.000978
135.000015258789 18.464612960815 7.522720813751 0.999999 0.000978 0.000978
135.000015258789 1.191371917725 6.740124225616 0.999999 0.000978 0.000978
135.000015258789 2.106283664703 6.644990444183 0.999999 0.000978 0.000978
135.000015258789 13.827091217041 6.479725837708 0.999999 0.000978 0.000978
135.000015258789 24.534528732300 8.199517250061 0.999999 0.000978 0.000978
135.000015258789 21.234069824219 7.054694175720 0.999999 0.000978 0.000978
135.000015258789 18.985231399536 7.225462436676 0.999999 0.000978 0.000978
135.000015258789 15.024338722229 8.290193557739 0.999999 0.000978 0.000978
135.000015258789 -3.322671890259 6.509994506836 0.999999 0.000978 0.000978
135.000015258789 -4.837522029877 6.657853126526 0.999999 0.000978 0.000978
135.000015258789 15.227264404297 7.332760810852 0.999999 0.000978 0.000978
135.000015258789 -0.389007091522 7.268014907837 0.999999 0.000978 0.000978
135.000015258789 3.237243175507 7.925972938538 0.999999 0.000978 0.000978
135.000015258789 -6.757373809814 7.956938266754 0.999999 0.000978 0.000978
135.000015258789 -5.820713996887 8.153398513794 0.999999 0.000978 0.000978
135.000015258789 -3.793555259705 7.967328071594 0.999999 0.000978 0.000978
135.000015258789 -4.468553066254 6.990839481354 0.999999 0.000978 0.000978
135.000015258789 -20.186334609985 7.789585113525 0.999999 0.000978 0.000978
135.000015258789 -4.487628936768 7.189522743225 0.999999 0.000978 0.000978
135.000015258789 -0.688897132874 4.716995239258 0.999999 0.000978 0.000978
135.000015258789 2.098632812500 1.674651622772 0.999999 0.000978 0.000978
135.000015258789 18.962745666504 6.355851173401 0.999999 0.000978 0.000978
135.000015258789 4.157241821289 7.964825630188 0.999999 0.000978 0.000978
135.000015258789 7.903400421143 4.176718711853 0.999999 0.000978 0.000978
135.000015258789 9.963111877441 8.340134620667 0.999999 0.000978 0.000978
135.000015258789 3.379531860352 5.771200656891 0.999999 0.000978 0.000978
135.000015258789 -4.714281082153 5.217856884003 0.999999 0.000978 0.000978
135.000015258789 -9.971933364868 8.225766181946 0.999999 0.000978 0.000978
135.000015258789 20.249282836914 6.654291629791 0.999999 0.000978 0.000978
135.000015258789 6.684568881989 2.349760293961 0.999999 0.000978 0.000978
135.000015258789 22.197237014771 4.959321975708 0.999999 0.000978 0.000978
135.000015258789 26.503997802734 -7.442654132843 0.999999 0.000978 0.000978
135.000015258789 22.848243713379 -1.747684478760 0.999999 0.000978 0.000978
135.000015258789 26.571325302124 5.823101997375 0.999999 0.000978 0.000978
135.000015258789 23.491176605225 -0.905701160431 0.999999 0.000978 0.000978
135.000015258789 23.659339904785 -4.008938789368 0.999999 0.000978 0.000978
135.000015258789 26.723102569580 8.326800346375 0.999999 0.000978 0.000978
135.000015258789 24.996212005615 -6.462338924408 0.999999 0.000978 0.000978
135.000015258789 22.544479370117 0.699897766113 0.999999 0.000978 0.000978
135.000015258789 25.697292327881 -1.088097333908 0.999999 0.000978 0.000978
135.000015258789 25.939966201782 -3.857607126236 0.999999 0.000978 0.000978
135.000015258789 24.337388992310 -5.824686527252 0.999999 0.000978 0.000978
135.000015258789 24.663064956665 4.502229690552 0.999999 0.000978 0.000978
135.000015258789 17.726337432861 -5.023427963257 0.999999 0.000978 0.000978
135.000015258789 18.453243255615 -7.343852519989 0.999999 0.000978 0.000978
135.000015258789 13.044874191284 -4.691128253937 0.999999 0.000978 0.000978
135.000015258789 15.218851089478 -5.263778686523 0.999999 0.000978 0.000978
135.000015258789 10.213684082031 -3.869883060455 0.999999 0.000978 0.000978
135.000015258789 19.868457794189 -8.174271583557 0.999999 0.000978 0.000978
135.000015258789 15.902593612671 -6.433941364288 0.999999 0.000978 0.000978
135.000015258789 14.312247276306 -2.652454853058 0.999999 0.000978 0.000978
135.000015258789 12.284420967102 -2.342214822769 0.999999 0.000978 0.000978
135.000015258789 22.277503967285 3.963983297348 0.999999 0.000978 0.000978
135.000015258789 20.606597900391 0.919463157654 0.999999 0.000978 0.000978
135.000015258789 22.698129653931 2.817045688629 0.999999 0.000978 0.000978
135.000015258789 24.350967407227 -7.642035007477 0.999999 0.000978 0.000978
135.000015258789 22.219907760620 -5.919703483582 0.999999 0.000978 0.000978
135.000015258789 20.404846191406 -4.461749553680 0.999999 0.000978 0.000978
135.000015258789 4.875725746155 -0.609118461609 0.999999 0.000978 0.000978
135.000015258789 10.017176628113 -0.905308961868 0.999999 0.000978 0.000978
135.000015258789 7.169597625732 -1.100582361221 0.999999 0.000978 0.000978
135.000015258789 9.952407836914 -1.422672986984 0.999999 0.000978 0.000978
135.000015258789 5.137914657593 -1.532068848610 0.999999 0.000978 0.000978
135.000015258789 9.295532226563 0.369756013155 0.999999 0.000978 0.000978
135.000015258789 14.361889839172 1.422823309898 0.999999 0.000978 0.000978
135.000015258789 13.908933639526 1.798622131348 0.999999 0.000978 0.000978
135.000015258789 15.975401878357 3.817861795425 0.999999 0.000978 0.000978
135.000015258789 17.391424179077 3.353621482849 0.999999 0.000978 0.000978
135.000015258789 9.509833335876 1.576579928398 0.999999 0.000978 0.000978
135.000015258789 8.550601005554 0.390605926514 0.999999 0.000978 0.000978
135.000015258789 12.799425125122 1.623905420303 0.999999 0.000978 0.000978
-3.396881103516 8.351362228394 -11.364593505859 0.000978 0.000978 -0.999999
-11.880584716797 6.547769546509 -11.364593505859 0.000978 0.000978 -0.999999
-51.615898132324 24.741821289063 -11.364592552185 0.000978 0.000978 -0.999999
0.638122558594 15.502449989319 -11.364592552185 0.000978 0.000978 -0.999999
6.374099731445 16.373538970947 -11.364592552185 0.000978 0.000978 -0.999999
-17.028312683105 17.192012786865 -11.364592552185 0.000978 0.000978 -0.999999
-110.737937927246 25.003137588501 -11.364592552185 0.000978 0.000978 -0.999999
-88.102882385254 26.423601150513 -11.364592552185 0.000978 0.000978 -0.999999
-25.422386169434 -2.668922424316 -11.364593505859 0.000978 0.000978 -0.999999
-123.709190368652 7.016171455383 -11.364593505859 0.000978 0.000978 -0.999999
-40.842788696289 -1.381122589111 -11.364593505859 0.000978 0.000978 -0.999999
29.307601928711 18.243606567383 -11.364593505859 0.000978 0.000978 -0.999999
-88.616592407227 0.331435203552 -11.364593505859 0.000978 0.000978 -0.999999
-4.261047363281 12.025112152100 -11.364593505859 0.000978 0.000978 -0.999999
11.688919067383 5.590690612793 -11.364593505859 0.000978 0.000978 -0.999999
34.000335693359 12.836330413818 -11.364593505859 0.000978 0.000978 -0.999999
27.245117187500 15.327732086182 -11.364593505859 0.000978 0.000978 -0.999999
-120.976226806641 -6.243840217590 -11.364593505859 0.000978 0.000978 -0.999999
-79.936096191406 7.029640197754 -11.364593505859 0.000978 0.000978 -0.999999
-59.383430480957 10.832143783569 -11.364592552185 0.000978 0.000978 -0.999999
-83.083930969238 -0.076676368713 -11.364593505859 0.000978 0.000978 -0.999999
-60.918197631836 11.380378723145 -11.364592552185 0.000978 0.000978 -0.999999
-122.301429748535 13.520579338074 -11.364593505859 0.000978 0.000978 -0.999999
-113.504264831543 -3.935662984848 -11.364593505859 0.000978 0.000978 -0.999999
-97.932746887207 0.272270202637 -11.364593505859 0.000978 0.000978 -0.999999
-29.242927551270 21.782579421997 -11.364592552185 0.000978 0.000978 -0.999999
-124.493659973145 5.541614532471 -11.364593505859 0.000978 0.000978 -0.999999
-122.429870605469 -19.358692169189 -11.364594459534 0.000978 0.000978 -0.999999
-85.808471679688 -12.371096611023 -11.364594459534 0.000978 0.000978 -0.999999
-112.959274291992 -16.334915161133 -11.364594459534 0.000978 0.000978 -0.999999
50.482742309570 23.645378112793 -11.364593505859 0.000978 0.000978 -0.999999
-134.471481323242 4.983414649963 -11.364593505859 0.000978 0.000978 -0.999999
7.401763916016 24.969196319580 -11.364592552185 0.000978 0.000978 -0.999999
-45.846313476563 11.199892044067 -11.364592552185 0.000978 0.000978 -0.999999
-39.133293151855 17.232610702515 -11.364592552185 0.000978 0.000978 -0.999999
61.935989379883 22.273906707764 -11.364593505859 0.000978 0.000978 -0.999999
26.298248291016 14.016679763794 -11.364593505859 0.000978 0.000978 -0.999999
43.423339843750 24.243352890015 -11.364592552185 0.000978 0.000978 -0.999999
68.945602416992 20.384881973267 -11.364592552185 0.000978 0.000978 -0.999999
6.661621093750 10.248744010925 -11.364593505859 0.000978 0.000978 -0.999999
-21.000862121582 5.266225814819 -11.364593505859 0.000978 0.000978 -0.999999
-66.436798095703 -4.024721145630 -11.364593505859 0.000978 0.000978 -0.999999
-109.899185180664 1.364250183105 -11.364593505859 0.000978 0.000978 -0.999999
-22.890106201172 -1.540748596191 -11.364593505859 0.000978 0.000978 -0.999999
28.875885009766 18.501846313477 -11.364593505859 0.000978 0.000978 -0.999999
-68.015914916992 12.352434158325 -11.364593505859 0.000978 0.000978 -0.999999
-50.179222106934 10.801136016846 -11.364592552185 0.000978 0.000978 -0.999999
-128.336151123047 -13.568552970886 -11.364594459534 0.000978 0.000978 -0.999999
-44.669708251953 19.233610153198 -11.364592552185 0.000978 0.000978 -0.999999
-60.811531066895 23.478935241699 -11.364592552185 0.000978 0.000978 -0.999999
-126.922477722168 19.594833374023 -11.364592552185 0.000978 0.000978 -0.999999
-104.363410949707 18.077323913574 -11.364593505859 0.000978 0.000978 -0.999999
56.221694946289 17.585681915283 -11.364593505859 0.000978 0.000978 -0.999999
17.591522216797 10.683168411255 -11.364593505859 0.000978 0.000978 -0.999999
-79.466827392578 -5.199021339417 -11.364594459534 0.000978 0.000978 -0.999999
65.104583740234 24.959321975708 -11.364593505859 0.000978 0.000978 -0.999999
47.454193115234 20.834440231323 -11.364593505859 0.000978 0.000978 -0.999999
-123.273040771484 0.011848449707 -11.364593505859 0.000978 0.000978 -0.999999
70.397262573242 25.869659423828 -11.364592552185 0.000978 0.000978 -0.999999
-127.994033813477 -3.838670730591 -11.364593505859 0.000978 0.000978 -0.999999
-93.231872558594 6.569157123566 -11.364593505859 0.000978 0.000978 -0.999999
-43.069099426270 3.558620452881 -11.364593505859 0.000978 0.000978 -0.999999
-11.456230163574 25.323019027710 -11.364592552185 0.000978 0.000978 -0.999999
87.894271850586 20.102403640747 -11.364592552185 0.000978 0.000978 -0.999999
102.936752319336 21.190364837646 -11.364592552185 0.000978 0.000978 -0.999999
-66.158065795898 -1.776231765747 -11.364593505859 0.000978 0.000978 -0.999999
-61.676483154297 21.694118499756 -11.364592552185 0.000978 0.000978 -0.999999
-120.592552185059 -16.304702758789 -11.364594459534 0.000978 0.000978 -0.999999
60.299667358398 14.027177810669 -11.364593505859 0.000978 0.000978 -0.999999
101.177093505859 25.069478988647 -11.364592552185 0.000978 0.000978 -0.999999
-74.617752075195 -10.857209205627 -11.364594459534 0.000978 0.000978 -0.999999
23.392379760742 6.617153167725 -11.364593505859 0.000978 0.000978 -0.999999
32.552917480469 9.249561309814 -11.364593505859 0.000978 0.000978 -0.999999
-71.273925781250 -8.084056854248 -11.364594459534 0.000978 0.000978 -0.999999
-103.403892517090 -12.620162010193 -11.364594459534 0.000978 0.000978 -0.999999
-120.846954345703 9.433870315552 -11.364593505859 0.000978 0.000978 -0.999999
0.928039550781 18.454145431519 -11.364592552185 0.000978 0.000978 -0.999999
95.868850708008 24.695831298828 -11.364592552185 0.000978 0.000978 -0.999999
43.689071655273 12.411684036255 -11.364593505859 0.000978 0.000978 -0.999999
-118.133773803711 22.358118057251 -11.364592552185 0.000978 0.000978 -0.999999
-86.412658691406 18.406644821167 -11.364593505859 0.000978 0.000978 -0.999999
36.883682250977 18.665269851685 -11.364593505859 0.000978 0.000978 -0.999999
-24.777626037598 1.809272766113 -11.364593505859 0.000978 0.000978 -0.999999
-114.130218505859 -16.954652786255 -11.364594459534 0.000978 0.000978 -0.999999
11.065780639648 11.647903442383 -11.364593505859 0.000978 0.000978 -0.999999
-88.573791503906 21.984313964844 -11.364593505859 0.000978 0.000978 -0.999999
43.364456176758 24.063472747803 -11.364592552185 0.000978 0.000978 -0.999999
-23.899208068848 7.902398109436 -11.364593505859 0.000978 0.000978 -0.999999
-43.801826477051 12.791778564453 -11.364592552185 0.000978 0.000978 -0.999999
-119.277648925781 3.824279308319 -11.364593505859 0.000978 0.000978 -0.999999
-130.260101318359 -9.523324966431 -11.364593505859 0.000978 0.000978 -0.999999
-65.256668090820 -2.034945487976 -11.364593505859 0.000978 0.000978 -0.999999
-92.391433715820 -5.063853263855 -11.364594459534 0.000978 0.000978 -0.999999
-16.894050598145 20.534357070923 -11.364592552185 0.000978 0.000978 -0.999999
-17.478721618652 -0.852668762207 -11.364593505859 0.000978 0.000978 -0.999999
-127.713775634766 14.567494392395 -11.364593505859 0.000978 0.000978 -0.999999
-37.433929443359 2.325059890747 -11.364593505859 0.000978 0.000978 -0.999999
-128.934204101563 -16.784442901611 -11.364594459534 0.000978 0.000978 -0.999999
-126.298637390137 1.911747336388 -11.364593505859 0.000978 0.000978 -0.999999
23.532180786133 23.912723541260 -11.364592552185 0.000978 0.000978 -0.999999
-102.419433593750 -15.901914596558 -11.364594459534 0.000978 0.000978 -0.999999
-80.274185180664 19.060428619385 -11.364593505859 0.000978 0.000978 -0.999999
-86.060920715332 18.424263000488 -11.364593505859 0.000978 0.000978 -0.999999
-111.791381835938 13.457427978516 -11.364593505859 0.000978 0.000978 -0.999999
-76.703392028809 16.171861648560 -11.364593505859 0.000978 0.000978 -0.999999
-132.934677124023 5.660241603851 -11.364593505859 0.000978 0.000978 -0.999999
-124.071525573730 -3.959476232529 -11.364593505859 0.000978 0.000978 -0.999999
-132.340438842773 -13.697528839111 -11.364594459534 0.000978 0.000978 -0.999999
4.402572631836 22.480638504028 -11.364592552185 0.000978 0.000978 -0.999999
99.362533569336 21.973581314087 -11.364592552185 0.000978 0.000978 -0.999999
108.038955688477 25.910787582397 -11.364592552185 0.000978 0.000978 -0.999999
-114.347442626953 -17.699222564697 -11.364594459534 0.000978 0.000978 -0.999999
-5.332366943359 23.482088088989 -11.364592552185 0.000978 0.000978 -0.999999
-101.719245910645 -12.400085449219 -11.364594459534 0.000978 0.000978 -0.999999
-4.952163696289 6.648342132568 -11.364593505859 0.000978 0.000978 -0.999999
-71.114959716797 19.708290100098 -11.364593505859 0.000978 0.000978 -0.999999
-126.358390808105 -20.539928436279 -11.364594459534 0.000978 0.000978 -0.999999
-89.648361206055 1.663688659668 -11.364593505859 0.000978 0.000978 -0.999999
-39.187843322754 16.607213973999 -11.364592552185 0.000978 0.000978 -0.999999
-129.548080444336 -19.917467117310 -11.364594459534 0.000978 0.000978 -0.999999
43.395248413086 18.985170364380 -11.364593505859 0.000978 0.000978 -0.999999
-95.255432128906 12.639755249023 -11.364593505859 0.000978 0.000978 -0.999999
37.313186645508 24.205209732056 -11.364592552185 0.000978 0.000978 -0.999999
-49.393142700195 -0.506433486938 -11.364593505859 0.000978 0.000978 -0.999999
-27.967948913574 22.643583297729 -11.364592552185 0.000978 0.000978 -0.999999
-89.747573852539 3.105254173279 -11.364593505859 0.000978 0.000978 -0.999999
31.743515014648 21.474182128906 -11.364592552185 0.000978 0.000978 -0.999999
85.110092163086 22.800422668457 -11.364592552185 0.000978 0.000978 -0.999999
-107.212860107422 6.751874923706 -11.364593505859 0.000978 0.000978 -0.999999
-127.525451660156 6.291354179382 -11.364593505859 0.000978 0.000978 -0.999999
79.087127685547 21.371208190918 -11.364592552185 0.000978 0.000978 -0.999999
-96.446525573730 -8.778754234314 -11.364594459534 0.000978 0.000978 -0.999999
-75.833847045898 19.665729522705 -11.364593505859 0.000978 0.000978 -0.999999
-11.933769226074 21.006956100464 -11.364592552185 0.000978 0.000978 -0.999999
-3.387374877930 19.411945343018 -11.364592552185 0.000978 0.000978 -0.999999
61.193374633789 13.250448226929 -11.364593505859 0.000978 0.000978 -0.999999
-119.277076721191 0.924036502838 -11.364593505859 0.000978 0.000978 -0.999999
-10.606681823730 26.481073379517 -11.364592552185 0.000978 0.000978 -0.999999
-100.004562377930 -8.681023597717 -11.364594459534 0.000978 0.000978 -0.999999
-28.413604736328 11.708885192871 -11.364592552185 0.000978 0.000978 -0.999999
-106.504447937012 20.157474517822 -11.364592552185 0.000978 0.000978 -0.999999
-27.311500549316 22.496406555176 -11.364592552185 0.000978 0.000978 -0.999999
-125.592712402344 10.836208343506 -11.364593505859 0.000978 0.000978 -0.999999
-127.649276733398 25.331468582153 -11.364592552185 0.000978 0.000978 -0.999999
70.316604614258 19.491737365723 -11.364592552185 0.000978 0.000978 -0.999999
-15.364723205566 1.358194351196 -11.364593505859 0.000978 0.000978 -0.999999
17.287841796875 10.635261535645 -11.364593505859 0.000978 0.000978 -0.999999
-44.448104858398 8.762316703796 -11.364592552185 0.000978 0.000978 -0.999999
-49.042236328125 -1.633667945862 -11.364593505859 0.000978 0.000978 -0.999999
-118.295036315918 0.744103431702 -11.364593505859 0.000978 0.000978 -0.999999
3.344970703125 7.523797988892 -11.364593505859 0.000978 0.000978 -0.999999
-58.622047424316 8.097773551941 -11.364592552185 0.000978 0.000978 -0.999999
-33.412071228027 26.201673507690 -11.364592552185 0.000978 0.000978 -0.999999
57.511184692383 20.627965927124 -11.364593505859 0.000978 0.000978 -0.999999
-133.429672241211 25.151762008667 -11.364592552185 0.000978 0.000978 -0.999999
9.270385742188 14.085560798645 -11.364593505859 0.000978 0.000978 -0.999999
-109.696144104004 -10.951080322266 -11.364594459534 0.000978 0.000978 -0.999999
-96.760559082031 -14.415170669556 -11.364594459534 0.000978 0.000978 -0.999999
-15.415023803711 1.152324676514 -11.364593505859 0.000978 0.000978 -0.999999
20.654312133789 15.694445610046 -11.364593505859 0.000978 0.000978 -0.999999
-92.860290527344 -0.957259178162 -11.364593505859 0.000978 0.000978 -0.999999
43.642105102539 10.217943191528 -11.364593505859 0.000978 0.000978 -0.999999
-27.855529785156 5.925044059753 -11.364593505859 0.000978 0.000978 -0.999999
5.382812500000 7.111974716187 -11.364593505859 0.000978 0.000978 -0.999999
-80.657409667969 21.127378463745 -11.364593505859 0.000978 0.000978 -0.999999
-62.741149902344 2.314457893372 -11.364593505859 0.000978 0.000978 -0.999999
72.453857421875 24.518192291260 -11.364592552185 0.000978 0.000978 -0.999999
-50.775711059570 -5.484436988831 -11.364593505859 0.000978 0.000978 -0.999999
-86.096466064453 10.881815910339 -11.364593505859 0.000978 0.000978 -0.999999
-124.718505859375 -20.188556671143 -11.364594459534 0.000978 0.000978 -0.999999
-42.840057373047 6.106923103333 -11.364593505859 0.000978 0.000978 -0.999999
4.608123779297 13.511752128601 -11.364593505859 0.000978 0.000978 -0.999999
-41.112831115723 13.397848129272 -11.364592552185 0.000978 0.000978 -0.999999
-113.819351196289 -11.768788337708 -11.364594459534 0.000978 0.000978 -0.999999
-51.390190124512 17.820377349854 -11.364592552185 0.000978 0.000978 -0.999999
94.299240112305 22.068559646606 -11.364592552185 0.000978 0.000978 -0.999999
90.853240966797 20.860977172852 -11.364592552185 0.000978 0.000978 -0.999999
-93.410728454590 -5.667871475220 -11.364594459534 0.000978 0.000978 -0.999999
-69.504928588867 -0.904984474182 -11.364594459534 0.000978 0.000978 -0.999999
-56.553359985352 -5.007899284363 -11.364593505859 0.000978 0.000978 -0.999999
-70.411407470703 24.762929916382 -11.364593505859 0.000978 0.000978 -0.999999
-87.441902160645 8.633956909180 -11.364593505859 0.000978 0.000978 -0.999999
67.926620483398 23.180885314941 -11.364592552185 0.000978 0.000978 -0.999999
-104.591003417969 25.366090774536 -11.364592552185 0.000978 0.000978 -0.999999
-134.645004272461 -14.818651199341 -11.364594459534 0.000978 0.000978 -0.999999
-99.814254760742 13.284212112427 -11.364593505859 0.000978 0.000978 -0.999999
41.727325439453 16.511322021484 -11.364593505859 0.000978 0.000978 -0.999999
-123.202590942383 9.066912651062 -11.364593505859 0.000978 0.000978 -0.999999
-116.518218994141 -17.267932891846 -11.364594459534 0.000978 0.000978 -0.999999
75.497283935547 18.573328018188 -11.364592552185 0.000978 0.000978 -0.999999
-69.435569763184 20.855556488037 -11.364593505859 0.000978 0.000978 -0.999999
-56.267974853516 15.142117500305 -11.364592552185 0.000978 0.000978 -0.999999
-8.265510559082 9.254882812500 -11.364593505859 0.000978 0.000978 -0.999999
24.707153320313 15.676810264587 -11.364593505859 0.000978 0.000978 -0.999999
-60.602699279785 5.133829116821 -11.364592552185 0.000978 0.000978 -0.999999
-74.240432739258 24.800376892090 -11.364593505859 0.000978 0.000978 -0.999999
-109.809242248535 18.229705810547 -11.364593505859 0.000978 0.000978 -0.999999
-106.134819030762 -11.977767944336 -11.364594459534 0.000978 0.000978 -0.999999
-51.109672546387 25.787204742432 -11.364592552185 0.000978 0.000978 -0.999999
19.603942871094 22.968133926392 -11.364592552185 0.000978 0.000978 -0.999999
-99.243988037109 26.010768890381 -11.364592552185 0.000978 0.000978 -0.999999
-112.484848022461 -4.689098358154 -11.364593505859 0.000978 0.000978 -0.999999
-120.626869201660 -3.733482122421 -11.364593505859 0.000978 0.000978 -0.999999
-80.094573974609 -12.994502067566 -11.364594459534 0.000978 0.000978 -0.999999
-50.271766662598 -3.773860931396 -11.364593505859 0.000978 0.000978 -0.999999
-105.213119506836 3.395644187927 -11.364593505859 0.000978 0.000978 -0.999999
-44.263710021973 9.897336959839 -11.364592552185 0.000978 0.000978 -0.999999
-129.012695312500 -8.692944526672 -11.364593505859 0.000978 0.000978 -0.999999
-98.007194519043 -10.113697052002 -11.364594459534 0.000978 0.000978 -0.999999
37.025451660156 16.921628952026 -11.364593505859 0.000978 0.000978 -0.999999
-21.015251159668 7.776317596436 -11.364593505859 0.000978 0.000978 -0.999999
0.718582153320 7.197965621948 -11.364593505859 0.000978 0.000978 -0.999999
-108.274742126465 -15.289434432983 -11.364594459534 0.000978 0.000978 -0.999999
65.343399047852 20.918684005737 -11.364593505859 0.000978 0.000978 -0.999999
-107.409576416016 -2.857180595398 -11.364593505859 0.000978 0.000978 -0.999999
-60.770034790039 -4.634228706360 -11.364593505859 0.000978 0.000978 -0.999999
-7.025039672852 0.516395568848 -11.364593505859 0.000978 0.000978 -0.999999
-108.738197326660 -14.998625755310 -11.364594459534 0.000978 0.000978 -0.999999
-128.275527954102 0.444513916969 -11.364593505859 0.000978 0.000978 -0.999999
-22.339965820313 20.575597763062 -11.364592552185 0.000978 0.000978 -0.999999
-12.469398498535 18.185514450073 -11.364592552185 0.000978 0.000978 -0.999999
-87.898452758789 24.182243347168 -11.364592552185 0.000978 0.000978 -0.999999
23.201080322266 13.767514228821 -11.364593505859 0.000978 0.000978 -0.999999
-98.933181762695 -13.860299110413 -11.364594459534 0.000978 0.000978 -0.999999
-89.922363281250 11.592616081238 -11.364593505859 0.000978 0.000978 -0.999999
-127.085021972656 25.750127792358 -11.364592552185 0.000978 0.000978 -0.999999
0.876678466797 15.929330825806 -11.364592552185 0.000978 0.000978 -0.999999
-84.252868652344 -4.363145828247 -11.364594459534 0.000978 0.000978 -0.999999
-13.147285461426 19.107446670532 -11.364592552185 0.000978 0.000978 -0.999999
57.668395996094 23.611639022827 -11.364593505859 0.000978 0.000978 -0.999999
-76.195594787598 7.732637405396 -11.364593505859 0.000978 0.000978 -0.999999
35.937683105469 11.429922103882 -11.364593505859 0.000978 0.000978 -0.999999
2.780502319336 5.083801269531 -11.364593505859 0.000978 0.000978 -0.999999
-96.049621582031 12.978311538696 -11.364593505859 0.000978 0.000978 -0.999999
-69.042541503906 15.919822692871 -11.364593505859 0.000978 0.000978 -0.999999
-26.533859252930 16.965005874634 -11.364592552185 0.000978 0.000978 -0.999999
-102.001419067383 24.587976455688 -11.364592552185 0.000978 0.000978 -0.999999
-112.164550781250 -5.739657402039 -11.364593505859 0.000978 0.000978 -0.999999
-128.312026977539 -16.481193542480 -11.364594459534 0.000978 0.000978 -0.999999
-11.534194946289 16.962791442871 -11.364592552185 0.000978 0.000978 -0.999999
-132.573043823242 24.142133712769 -11.364592552185 0.000978 0.000978 -0.999999
63.632415771484 19.245021820068 -11.364593505859 0.000978 0.000978 -0.999999
-110.676971435547 -11.253762245178 -11.364594459534 0.000978 0.000978 -0.999999
-26.089149475098 17.568870544434 -11.364592552185 0.000978 0.000978 -0.999999
63.259017944336 14.576921463013 -11.364593505859 0.000978 0.000978 -0.999999
-23.831405639648 9.273970603943 -11.364593505859 0.000978 0.000978 -0.999999
-111.240119934082 -1.279239654541 -11.364593505859 0.000978 0.000978 -0.999999
-66.687126159668 24.791685104370 -11.364592552185 0.000978 0.000978 -0.999999
