//X Y Z Nx Ny Nz
611
141.285781860352 212.639633178711 -1.398427844048 0.000978 0.000978 -0.999999
135.942260742188 215.604507446289 -1.398427605629 0.000978 0.000978 -0.999999
131.258972167969 168.241043090820 -1.398430109024 0.000978 0.000978 -0.999999
136.553359985352 193.583831787109 -1.398428797722 0.000978 0.000978 -0.999999
134.708999633789 212.439849853516 -1.398427844048 0.000978 0.000978 -0.999999
139.708129882813 203.072860717773 -1.398428440094 0.000978 0.000978 -0.999999
135.431243896484 197.756042480469 -1.398428678513 0.000978 0.000978 -0.999999
132.564422607422 202.122253417969 -1.398428440094 0.000978 0.000978 -0.999999
131.043365478516 199.882812500000 -1.398428559303 0.000978 0.000978 -0.999999
132.858261108398 144.560821533203 -1.398431420326 0.000978 0.000978 -0.999999
131.706680297852 159.373168945313 -1.398430585861 0.000978 0.000978 -0.999999
140.285842895508 217.093032836914 -1.398427605629 0.000978 0.000978 -0.999999
138.407424926758 199.422973632813 -1.398428559303 0.000978 0.000978 -0.999999
134.300903320313 218.810272216797 -1.398427724838 0.000978 0.000978 -0.999999
133.562500000000 218.989120483398 -1.398427724838 0.000978 0.000978 -0.999999
120.301574707031 231.837066650391 -1.398427367210 0.000978 0.000978 -0.999999
122.708518981934 198.356018066406 -1.398428559303 0.000978 0.000978 -0.999999
122.896697998047 192.528747558594 -1.398428797722 0.000978 0.000978 -0.999999
123.793838500977 196.312225341797 -1.398428678513 0.000978 0.000978 -0.999999
127.698059082031 200.443191528320 -1.398428440094 0.000978 0.000978 -0.999999
127.912567138672 207.980606079102 -1.398427963257 0.000978 0.000978 -0.999999
130.924636840820 159.254287719727 -1.398430585861 0.000978 0.000978 -0.999999
134.558853149414 240.884963989258 -1.398426771164 0.000978 0.000978 -0.999999
135.159637451172 234.075012207031 -1.398427009583 0.000978 0.000978 -0.999999
141.324127197266 234.169433593750 -1.398426890373 0.000978 0.000978 -0.999999
140.471130371094 257.195617675781 -1.398425817490 0.000978 0.000978 -0.999999
139.297027587891 231.502471923828 -1.398427009583 0.000978 0.000978 -0.999999
141.795974731445 300.461730957031 -1.398424148560 0.000978 0.000978 -0.999999
137.638977050781 236.477767944336 -1.398426890373 0.000978 0.000978 -0.999999
134.411270141602 233.879791259766 -1.398427128792 0.000978 0.000978 -0.999999
143.116043090820 260.753906250000 -1.398425698280 0.000978 0.000978 -0.999999
141.768997192383 276.619537353516 -1.398425102234 0.000978 0.000978 -0.999999
136.453964233398 241.060195922852 -1.398426771164 0.000978 0.000978 -0.999999
137.824676513672 270.593231201172 -1.398425459862 0.000978 0.000978 -0.999999
138.466705322266 274.019653320313 -1.398425340652 0.000978 0.000978 -0.999999
137.806182861328 261.932281494141 -1.398425817490 0.000978 0.000978 -0.999999
138.592453002930 262.569305419922 -1.398425817490 0.000978 0.000978 -0.999999
139.540512084961 299.257507324219 -1.398424267769 0.000978 0.000978 -0.999999
135.099960327148 234.257446289063 -1.398427009583 0.000978 0.000978 -0.999999
141.447357177734 325.062805175781 -1.398423075676 0.000978 0.000978 -0.999999
138.932449340820 291.681396484375 -1.398424625397 0.000978 0.000978 -0.999999
131.519226074219 230.088897705078 -1.398427248001 0.000978 0.000978 -0.999999
142.701583862305 324.087402343750 -1.398423075676 0.000978 0.000978 -0.999999
137.131256103516 251.627334594727 -1.398426294327 0.000978 0.000978 -0.999999
141.236450195313 250.330978393555 -1.398426175117 0.000978 0.000978 -0.999999
143.318420410156 347.354187011719 -1.398422122002 0.000978 0.000978 -0.999999
139.354232788086 248.328582763672 -1.398426294327 0.000978 0.000978 -0.999999
142.635269165039 299.479675292969 -1.398424148560 0.000978 0.000978 -0.999999
136.919097900391 270.381195068359 -1.398425459862 0.000978 0.000978 -0.999999
136.966537475586 241.327804565430 -1.398426651955 0.000978 0.000978 -0.999999
142.550262451172 248.807495117188 -1.398426294327 0.000978 0.000978 -0.999999
144.800811767578 305.563781738281 -1.398423910141 0.000978 0.000978 -0.999999
150.890182495117 338.454437255859 -1.398422479630 0.000978 0.000978 -0.999999
148.711959838867 297.171661376953 -1.398424148560 0.000978 0.000978 -0.999999
145.112655639648 335.722320556641 -1.398422598839 0.000978 0.000978 -0.999999
147.684204101563 337.484130859375 -1.398422598839 0.000978 0.000978 -0.999999
149.636672973633 343.540161132813 -1.398422360420 0.000978 0.000978 -0.999999
149.748291015625 315.177795410156 -1.398423433304 0.000978 0.000978 -0.999999
152.491149902344 340.527893066406 -1.398422479630 0.000978 0.000978 -0.999999
147.168289184570 262.149566650391 -1.398425579071 0.000978 0.000978 -0.999999
150.566818237305 348.589477539063 -1.398422122002 0.000978 0.000978 -0.999999
144.039978027344 272.919342041016 -1.398425221443 0.000978 0.000978 -0.999999
147.954040527344 302.470947265625 -1.398424029350 0.000978 0.000978 -0.999999
153.676773071289 330.709625244141 -1.398422837257 0.000978 0.000978 -0.999999
145.652008056641 276.687011718750 -1.398424983025 0.000978 0.000978 -0.999999
150.756866455078 327.258514404297 -1.398422956467 0.000978 0.000978 -0.999999
154.276062011719 323.565979003906 -1.398423075676 0.000978 0.000978 -0.999999
155.948745727539 335.815551757813 -1.398422598839 0.000978 0.000978 -0.999999
146.977142333984 329.363464355469 -1.398422837257 0.000978 0.000978 -0.999999
154.297271728516 338.872955322266 -1.398422479630 0.000978 0.000978 -0.999999
146.808898925781 326.648590087891 -1.398422956467 0.000978 0.000978 -0.999999
148.642883300781 301.328491210938 -1.398424029350 0.000978 0.000978 -0.999999
147.515228271484 332.943908691406 -1.398422718048 0.000978 0.000978 -0.999999
147.384185791016 299.513366699219 -1.398424148560 0.000978 0.000978 -0.999999
144.102722167969 242.111923217773 -1.398426413536 0.000978 0.000978 -0.999999
147.999877929688 294.472656250000 -1.398424267769 0.000978 0.000978 -0.999999
146.761306762695 254.470169067383 -1.398425936699 0.000978 0.000978 -0.999999
148.075424194336 285.114776611328 -1.398424744606 0.000978 0.000978 -0.999999
148.979522705078 324.087829589844 -1.398423075676 0.000978 0.000978 -0.999999
153.347396850586 310.910064697266 -1.398423671722 0.000978 0.000978 -0.999999
152.720687866211 335.556579589844 -1.398422598839 0.000978 0.000978 -0.999999
147.914062500000 382.131103515625 -1.398420691490 0.000978 0.000978 -0.999999
148.623413085938 373.772064208984 -1.398420929909 0.000978 0.000978 -0.999999
154.397277832031 421.935913085938 -1.398418784142 0.000978 0.000978 -0.999999
147.285736083984 360.987670898438 -1.398421525955 0.000978 0.000978 -0.999999
159.051956176758 375.360961914063 -1.398420929909 0.000978 0.000978 -0.999999
152.675781250000 356.204864501953 -1.398421764374 0.000978 0.000978 -0.999999
157.857910156250 427.806335449219 -1.398418545723 0.000978 0.000978 -0.999999
152.343536376953 376.933685302734 -1.398420810699 0.000978 0.000978 -0.999999
158.424057006836 411.630828857422 -1.398419260979 0.000978 0.000978 -0.999999
155.193328857422 390.409393310547 -1.398420214653 0.000978 0.000978 -0.999999
159.203079223633 470.076049804688 -1.398416757584 0.000978 0.000978 -0.999999
152.340789794922 356.086853027344 -1.398421764374 0.000978 0.000978 -0.999999
145.997619628906 353.994201660156 -1.398421883583 0.000978 0.000978 -0.999999
156.419219970703 446.510162353516 -1.398417711258 0.000978 0.000978 -0.999999
153.814620971680 394.558074951172 -1.398420095444 0.000978 0.000978 -0.999999
149.241806030273 386.617218017578 -1.398420333862 0.000978 0.000978 -0.999999
159.162551879883 407.709167480469 -1.398419499397 0.000978 0.000978 -0.999999
152.656448364258 364.133697509766 -1.398421406746 0.000978 0.000978 -0.999999
151.898742675781 373.317230224609 -1.398421049118 0.000978 0.000978 -0.999999
149.545562744141 352.212097167969 -1.398422002792 0.000978 0.000978 -0.999999
151.416702270508 378.068969726563 -1.398420810699 0.000978 0.000978 -0.999999
151.067520141602 356.950408935547 -1.398421764374 0.000978 0.000978 -0.999999
158.125595092773 439.254180908203 -1.398418188095 0.000978 0.000978 -0.999999
156.733367919922 396.310089111328 -1.398419976234 0.000978 0.000978 -0.999999
155.928451538086 412.957031250000 -1.398419260979 0.000978 0.000978 -0.999999
158.578186035156 433.678283691406 -1.398418307304 0.000978 0.000978 -0.999999
150.925781250000 369.548706054688 -1.398421168327 0.000978 0.000978 -0.999999
153.090408325195 363.372802734375 -1.398421525955 0.000978 0.000978 -0.999999
153.469116210938 413.145202636719 -1.398419260979 0.000978 0.000978 -0.999999
149.878707885742 369.098327636719 -1.398421168327 0.000978 0.000978 -0.999999
150.421188354492 377.868774414063 -1.398420810699 0.000978 0.000978 -0.999999
153.904479980469 352.179412841797 -1.398422002792 0.000978 0.000978 -0.999999
152.386871337891 370.349182128906 -1.398421168327 0.000978 0.000978 -0.999999
159.479171752930 391.695953369141 -1.398420214653 0.000978 0.000978 -0.999999
130.369720458984 235.620635986328 -1.398427009583 0.000978 0.000978 -0.999999
129.114334106445 225.796264648438 -1.398427486420 0.000978 0.000978 -0.999999
128.225143432617 220.362823486328 -1.398427844048 0.000978 0.000978 -0.999999
130.901855468750 243.155578613281 -1.398426771164 0.000978 0.000978 -0.999999
127.971496582031 237.202072143555 -1.398427009583 0.000978 0.000978 -0.999999
136.761276245117 301.633636474609 -1.398424148560 0.000978 0.000978 -0.999999
129.691787719727 289.722106933594 -1.398424744606 0.000978 0.000978 -0.999999
126.588119506836 301.020202636719 -1.398424267769 0.000978 0.000978 -0.999999
140.032318115234 350.575042724609 -1.398422002792 0.000978 0.000978 -0.999999
127.418304443359 338.256591796875 -1.398422598839 0.000978 0.000978 -0.999999
128.703994750977 275.784088134766 -1.398425340652 0.000978 0.000978 -0.999999
137.097427368164 324.805297851563 -1.398423194885 0.000978 0.000978 -0.999999
130.533523559570 257.206634521484 -1.398426175117 0.000978 0.000978 -0.999999
133.645034790039 347.668640136719 -1.398422122002 0.000978 0.000978 -0.999999
133.787536621094 315.307464599609 -1.398423552513 0.000978 0.000978 -0.999999
135.216308593750 346.674377441406 -1.398422241211 0.000978 0.000978 -0.999999
130.809432983398 315.582122802734 -1.398423552513 0.000978 0.000978 -0.999999
129.632736206055 238.634933471680 -1.398427009583 0.000978 0.000978 -0.999999
126.877441406250 266.599182128906 -1.398425698280 0.000978 0.000978 -0.999999
136.285400390625 337.138092041016 -1.398422598839 0.000978 0.000978 -0.999999
133.734146118164 282.986572265625 -1.398424983025 0.000978 0.000978 -0.999999
135.762207031250 321.157836914063 -1.398423314095 0.000978 0.000978 -0.999999
134.601486206055 316.274475097656 -1.398423552513 0.000978 0.000978 -0.999999
135.593765258789 339.581878662109 -1.398422479630 0.000978 0.000978 -0.999999
134.251205444336 297.621215820313 -1.398424386978 0.000978 0.000978 -0.999999
139.520568847656 345.383636474609 -1.398422241211 0.000978 0.000978 -0.999999
129.139297485352 277.978607177734 -1.398425221443 0.000978 0.000978 -0.999999
128.144439697266 288.271362304688 -1.398424744606 0.000978 0.000978 -0.999999
130.506698608398 263.955932617188 -1.398425817490 0.000978 0.000978 -0.999999
128.249465942383 316.858367919922 -1.398423552513 0.000978 0.000978 -0.999999
137.507843017578 334.292297363281 -1.398422718048 0.000978 0.000978 -0.999999
139.736129760742 346.738067626953 -1.398422241211 0.000978 0.000978 -0.999999
128.907440185547 273.455169677734 -1.398425459862 0.000978 0.000978 -0.999999
131.577728271484 290.936767578125 -1.398424625397 0.000978 0.000978 -0.999999
138.609848022461 319.838500976563 -1.398423433304 0.000978 0.000978 -0.999999
131.090515136719 249.441955566406 -1.398426532745 0.000978 0.000978 -0.999999
129.967269897461 348.452697753906 -1.398422122002 0.000978 0.000978 -0.999999
128.652282714844 289.098785400391 -1.398424744606 0.000978 0.000978 -0.999999
133.046081542969 303.611724853516 -1.398424148560 0.000978 0.000978 -0.999999
127.574172973633 344.922058105469 -1.398422241211 0.000978 0.000978 -0.999999
127.374923706055 253.624694824219 -1.398426294327 0.000978 0.000978 -0.999999
134.731155395508 325.907318115234 -1.398423075676 0.000978 0.000978 -0.999999
129.909698486328 304.345092773438 -1.398424029350 0.000978 0.000978 -0.999999
126.814445495605 251.281539916992 -1.398426413536 0.000978 0.000978 -0.999999
123.388076782227 286.594879150391 -1.398424983025 0.000978 0.000978 -0.999999
121.075965881348 270.387268066406 -1.398425698280 0.000978 0.000978 -0.999999
123.293846130371 316.072509765625 -1.398423671722 0.000978 0.000978 -0.999999
126.210548400879 309.812774658203 -1.398423790932 0.000978 0.000978 -0.999999
118.286819458008 278.871887207031 -1.398425459862 0.000978 0.000978 -0.999999
122.131362915039 248.691497802734 -1.398426771164 0.000978 0.000978 -0.999999
119.615974426270 258.790039062500 -1.398426294327 0.000978 0.000978 -0.999999
117.539169311523 261.575683593750 -1.398426294327 0.000978 0.000978 -0.999999
120.346267700195 256.966003417969 -1.398426413536 0.000978 0.000978 -0.999999
123.525970458984 261.480163574219 -1.398426055908 0.000978 0.000978 -0.999999
122.214469909668 287.474578857422 -1.398424983025 0.000978 0.000978 -0.999999
124.190528869629 251.718536376953 -1.398426532745 0.000978 0.000978 -0.999999
123.590988159180 235.443145751953 -1.398427248001 0.000978 0.000978 -0.999999
122.423553466797 245.394393920898 -1.398426771164 0.000978 0.000978 -0.999999
123.245330810547 233.007293701172 -1.398427367210 0.000978 0.000978 -0.999999
123.800811767578 320.896423339844 -1.398423433304 0.000978 0.000978 -0.999999
124.531684875488 226.511230468750 -1.398427605629 0.000978 0.000978 -0.999999
122.862144470215 323.344146728516 -1.398423433304 0.000978 0.000978 -0.999999
124.371513366699 299.266143798828 -1.398424386978 0.000978 0.000978 -0.999999
117.201721191406 274.073883056641 -1.398425817490 0.000978 0.000978 -0.999999
125.852500915527 286.549896240234 -1.398424863815 0.000978 0.000978 -0.999999
119.913520812988 261.829010009766 -1.398426175117 0.000978 0.000978 -0.999999
117.469490051270 270.833892822266 -1.398425817490 0.000978 0.000978 -0.999999
125.588325500488 314.061431884766 -1.398423671722 0.000978 0.000978 -0.999999
124.792984008789 248.362640380859 -1.398426651955 0.000978 0.000978 -0.999999
122.130676269531 259.008911132813 -1.398426175117 0.000978 0.000978 -0.999999
126.414627075195 216.893997192383 -1.398427963257 0.000978 0.000978 -0.999999
119.286903381348 246.447341918945 -1.398426890373 0.000978 0.000978 -0.999999
124.344039916992 220.346389770508 -1.398427844048 0.000978 0.000978 -0.999999
120.181030273438 238.608993530273 -1.398427128792 0.000978 0.000978 -0.999999
119.843399047852 233.058044433594 -1.398427367210 0.000978 0.000978 -0.999999
119.343406677246 223.997146606445 -1.398427724838 0.000978 0.000978 -0.999999
116.554008483887 182.609893798828 -1.398429751396 0.000978 0.000978 -0.999999
120.504119873047 205.508850097656 -1.398428440094 0.000978 0.000978 -0.999999
116.098350524902 150.575424194336 -1.398431181908 0.000978 0.000978 -0.999999
117.573081970215 231.680419921875 -1.398427486420 0.000978 0.000978 -0.999999
116.353507995605 233.887023925781 -1.398427486420 0.000978 0.000978 -0.999999
118.009811401367 175.724441528320 -1.398429989815 0.000978 0.000978 -0.999999
116.661033630371 176.726806640625 -1.398429989815 0.000978 0.000978 -0.999999
117.304809570313 194.401428222656 -1.398429036140 0.000978 0.000978 -0.999999
121.697074890137 204.670379638672 -1.398428320885 0.000978 0.000978 -0.999999
121.021957397461 201.090667724609 -1.398428559303 0.000978 0.000978 -0.999999
116.144386291504 222.679641723633 -1.398427963257 0.000978 0.000978 -0.999999
118.979110717773 219.788177490234 -1.398427844048 0.000978 0.000978 -0.999999
116.270050048828 240.594329833984 -1.398427248001 0.000978 0.000978 -0.999999
116.516601562500 217.216003417969 -1.398428201675 0.000978 0.000978 -0.999999
115.816024780273 242.420989990234 -1.398427128792 0.000978 0.000978 -0.999999
115.057708740234 261.864654541016 -1.398426413536 0.000978 0.000978 -0.999999
114.743927001953 174.318527221680 -1.398430109024 0.000978 0.000978 -0.999999
110.016738891602 212.395553588867 -1.398428082466 0.000978 0.000978 -0.999999
114.482177734375 213.607666015625 -1.398428559303 0.000978 0.000978 -0.999999
111.758102416992 191.169830322266 -1.398429274559 0.000978 0.000978 -0.999999
111.228401184082 203.227493286133 -1.398428678513 0.000978 0.000978 -0.999999
111.240409851074 243.898254394531 -1.398426890373 0.000978 0.000978 -0.999999
111.688995361328 169.980224609375 -1.398430109024 0.000978 0.000978 -0.999999
109.850440979004 191.578582763672 -1.398429036140 0.000978 0.000978 -0.999999
113.140136718750 158.820037841797 -1.398430705070 0.000978 0.000978 -0.999999
112.748001098633 184.874420166016 -1.398429632187 0.000978 0.000978 -0.999999
113.307022094727 218.952331542969 -1.398428082466 0.000978 0.000978 -0.999999
111.591567993164 189.809005737305 -1.398429274559 0.000978 0.000978 -0.999999
112.147537231445 192.166931152344 -1.398429155350 0.000978 0.000978 -0.999999
112.412490844727 210.575714111328 -1.398428440094 0.000978 0.000978 -0.999999
110.685638427734 179.763290405273 -1.398429512978 0.000978 0.000978 -0.999999
110.810379028320 206.965667724609 -1.398428440094 0.000978 0.000978 -0.999999
114.192169189453 235.096740722656 -1.398427486420 0.000978 0.000978 -0.999999
111.688629150391 242.085433959961 -1.398427009583 0.000978 0.000978 -0.999999
111.153625488281 197.601669311523 -1.398428916931 0.000978 0.000978 -0.999999
113.560218811035 258.730529785156 -1.398426413536 0.000978 0.000978 -0.999999
109.672912597656 226.991333007813 -1.398427486420 0.000978 0.000978 -0.999999
106.661979675293 171.161727905273 -1.398429870605 0.000978 0.000978 -0.999999
106.595237731934 153.206039428711 -1.398430943489 0.000978 0.000978 -0.999999
110.603027343750 165.109863281250 -1.398430228233 0.000978 0.000978 -0.999999
110.211608886719 151.766632080078 -1.398430943489 0.000978 0.000978 -0.999999
107.942749023438 143.478775024414 -1.398431420326 0.000978 0.000978 -0.999999
107.855895996094 184.995117187500 -1.398429155350 0.000978 0.000978 -0.999999
106.546897888184 154.533966064453 -1.398430824280 0.000978 0.000978 -0.999999
106.903038024902 132.991104125977 -1.398432016373 0.000978 0.000978 -0.999999
109.551353454590 167.800811767578 -1.398430109024 0.000978 0.000978 -0.999999
107.879333496094 141.131881713867 -1.398431539536 0.000978 0.000978 -0.999999
111.607162475586 134.753356933594 -1.398431897163 0.000978 0.000978 -0.999999
103.503250122070 169.185638427734 -1.398429989815 0.000978 0.000978 -0.999999
102.897392272949 179.729339599609 -1.398429393768 0.000978 0.000978 -0.999999
100.210510253906 143.996093750000 -1.398431301117 0.000978 0.000978 -0.999999
101.653114318848 148.454223632813 -1.398431062698 0.000978 0.000978 -0.999999
102.325935363770 153.594482421875 -1.398430824280 0.000978 0.000978 -0.999999
104.403747558594 183.543487548828 -1.398429274559 0.000978 0.000978 -0.999999
101.322357177734 170.332077026367 -1.398429870605 0.000978 0.000978 -0.999999
104.162231445313 149.026321411133 -1.398431062698 0.000978 0.000978 -0.999999
102.719039916992 171.297134399414 -1.398429870605 0.000978 0.000978 -0.999999
103.438087463379 135.208328247070 -1.398431897163 0.000978 0.000978 -0.999999
101.104438781738 137.723922729492 -1.398431658745 0.000978 0.000978 -0.999999
112.242118835449 -153.068557739258 -1.398444414139 0.000978 0.000978 -0.999999
106.827827453613 -145.805984497070 -1.398444175720 0.000978 0.000978 -0.999999
114.453628540039 -163.890243530273 -1.398444771767 0.000978 0.000978 -0.999999
113.611793518066 -32.885974884033 -1.398438811302 0.000978 0.000978 -0.999999
113.866668701172 -113.789886474609 -1.398442506790 0.000978 0.000978 -0.999999
109.839355468750 -135.394363403320 -1.398443579674 0.000978 0.000978 -0.999999
113.745910644531 -50.143844604492 -1.398439645767 0.000978 0.000978 -0.999999
112.989051818848 -125.107589721680 -1.398443102837 0.000978 0.000978 -0.999999
113.385467529297 -28.450216293335 -1.398438572884 0.000978 0.000978 -0.999999
113.461273193359 -99.517898559570 -1.398441791534 0.000978 0.000978 -0.999999
112.647483825684 -62.583156585693 -1.398440122604 0.000978 0.000978 -0.999999
109.718933105469 -66.422676086426 -1.398440480232 0.000978 0.000978 -0.999999
111.504074096680 -64.515914916992 -1.398440241814 0.000978 0.000978 -0.999999
108.224967956543 -97.463294982910 -1.398441910744 0.000978 0.000978 -0.999999
111.484947204590 -97.468574523926 -1.398441910744 0.000978 0.000978 -0.999999
112.340339660645 -94.968505859375 -1.398441672325 0.000978 0.000978 -0.999999
110.009529113770 -60.515102386475 -1.398440122604 0.000978 0.000978 -0.999999
111.010169982910 -85.102294921875 -1.398441314697 0.000978 0.000978 -0.999999
107.107574462891 -123.487426757813 -1.398443102837 0.000978 0.000978 -0.999999
112.049743652344 -132.629501342773 -1.398443460464 0.000978 0.000978 -0.999999
113.830001831055 -53.623546600342 -1.398439764977 0.000978 0.000978 -0.999999
112.839073181152 -92.267135620117 -1.398441553116 0.000978 0.000978 -0.999999
113.075584411621 -87.121963500977 -1.398441314697 0.000978 0.000978 -0.999999
113.771270751953 -16.327384948730 -1.398437976837 0.000978 0.000978 -0.999999
109.794502258301 -84.489189147949 -1.398441314697 0.000978 0.000978 -0.999999
109.799392700195 -111.086357116699 -1.398442506790 0.000978 0.000978 -0.999999
112.963310241699 -117.052169799805 -1.398442745209 0.000978 0.000978 -0.999999
110.539482116699 -75.633972167969 -1.398440837860 0.000978 0.000978 -0.999999
109.188377380371 -104.562568664551 -1.398442149162 0.000978 0.000978 -0.999999
141.318969726563 -307.748291015625 -1.398450970650 0.000978 0.000978 -0.999999
139.469177246094 -347.680969238281 -1.398452639580 0.000978 0.000978 -0.999999
142.095520019531 -345.793029785156 -1.398452639580 0.000978 0.000978 -0.999999
142.968215942383 -236.842971801758 -1.398447990417 0.000978 0.000978 -0.999999
141.871734619141 -291.310424804688 -1.398450374603 0.000978 0.000978 -0.999999
142.010498046875 -335.982452392578 -1.398452162743 0.000978 0.000978 -0.999999
142.203002929688 -348.474578857422 -1.398452758789 0.000978 0.000978 -0.999999
142.427871704102 -208.378936767578 -1.398446679115 0.000978 0.000978 -0.999999
142.374084472656 -272.317779541016 -1.398449540138 0.000978 0.000978 -0.999999
139.830215454102 -345.491271972656 -1.398452639580 0.000978 0.000978 -0.999999
141.953857421875 -256.690216064453 -1.398448824883 0.000978 0.000978 -0.999999
141.623001098633 -354.518310546875 -1.398452877998 0.000978 0.000978 -0.999999
140.765319824219 -335.508514404297 -1.398452162743 0.000978 0.000978 -0.999999
143.397888183594 -184.522338867188 -1.398445606232 0.000978 0.000978 -0.999999
142.007888793945 -328.009216308594 -1.398451805115 0.000978 0.000978 -0.999999
141.570129394531 -329.441497802734 -1.398451924324 0.000978 0.000978 -0.999999
140.801513671875 -345.926910400391 -1.398452639580 0.000978 0.000978 -0.999999
136.907440185547 -187.444335937500 -1.398445725441 0.000978 0.000978 -0.999999
135.857131958008 -322.331665039063 -1.398451566696 0.000978 0.000978 -0.999999
129.359222412109 -279.886169433594 -1.398449540138 0.000978 0.000978 -0.999999
124.679046630859 -230.012588500977 -1.398447394371 0.000978 0.000978 -0.999999
136.836654663086 -266.843627929688 -1.398449182510 0.000978 0.000978 -0.999999
127.079956054688 -275.964874267578 -1.398449420929 0.000978 0.000978 -0.999999
126.419662475586 -194.105453491211 -1.398445844650 0.000978 0.000978 -0.999999
138.217529296875 -267.306213378906 -1.398449182510 0.000978 0.000978 -0.999999
128.861083984375 -209.083694458008 -1.398446559906 0.000978 0.000978 -0.999999
129.805557250977 -193.044906616211 -1.398445844650 0.000978 0.000978 -0.999999
136.896224975586 -291.387939453125 -1.398450255394 0.000978 0.000978 -0.999999
125.145179748535 -241.875869750977 -1.398447871208 0.000978 0.000978 -0.999999
139.677841186523 -258.108062744141 -1.398448824883 0.000978 0.000978 -0.999999
136.437240600586 -217.774887084961 -1.398446917534 0.000978 0.000978 -0.999999
124.149597167969 -256.371032714844 -1.398448586464 0.000978 0.000978 -0.999999
137.988601684570 -222.995391845703 -1.398447275162 0.000978 0.000978 -0.999999
136.831909179688 -292.247100830078 -1.398450255394 0.000978 0.000978 -0.999999
134.070083618164 -203.200088500977 -1.398446321487 0.000978 0.000978 -0.999999
137.950607299805 -272.163543701172 -1.398449420929 0.000978 0.000978 -0.999999
134.530349731445 -255.796142578125 -1.398448586464 0.000978 0.000978 -0.999999
135.786270141602 -284.194763183594 -1.398449897766 0.000978 0.000978 -0.999999
134.291809082031 -219.692077636719 -1.398447036743 0.000978 0.000978 -0.999999
135.035003662109 -292.468231201172 -1.398450136185 0.000978 0.000978 -0.999999
135.579696655273 -242.828338623047 -1.398448109627 0.000978 0.000978 -0.999999
124.631195068359 -261.215759277344 -1.398448705673 0.000978 0.000978 -0.999999
135.490158081055 -252.854721069336 -1.398448586464 0.000978 0.000978 -0.999999
131.165908813477 -304.071960449219 -1.398450732231 0.000978 0.000978 -0.999999
126.834953308105 -229.334411621094 -1.398447394371 0.000978 0.000978 -0.999999
139.691223144531 -283.886474609375 -1.398449897766 0.000978 0.000978 -0.999999
118.929138183594 -216.939559936523 -1.398446798325 0.000978 0.000978 -0.999999
137.157318115234 -185.262603759766 -1.398445606232 0.000978 0.000978 -0.999999
124.809318542480 -233.874618530273 -1.398447513580 0.000978 0.000978 -0.999999
125.740653991699 -241.330612182617 -1.398447871208 0.000978 0.000978 -0.999999
125.568016052246 -257.307952880859 -1.398448467255 0.000978 0.000978 -0.999999
129.818435668945 -266.038848876953 -1.398449063301 0.000978 0.000978 -0.999999
130.824615478516 -203.718994140625 -1.398446321487 0.000978 0.000978 -0.999999
133.922409057617 -309.885498046875 -1.398450970650 0.000978 0.000978 -0.999999
119.410255432129 -230.723266601563 -1.398447275162 0.000978 0.000978 -0.999999
137.897460937500 -282.468750000000 -1.398449778557 0.000978 0.000978 -0.999999
126.390144348145 -241.370178222656 -1.398447990417 0.000978 0.000978 -0.999999
136.878479003906 -242.060684204102 -1.398448109627 0.000978 0.000978 -0.999999
138.391143798828 -307.768676757813 -1.398450970650 0.000978 0.000978 -0.999999
123.598121643066 -213.814529418945 -1.398446559906 0.000978 0.000978 -0.999999
123.773712158203 -194.466720581055 -1.398445844650 0.000978 0.000978 -0.999999
127.260772705078 -246.327987670898 -1.398448109627 0.000978 0.000978 -0.999999
140.454498291016 -252.086395263672 -1.398448586464 0.000978 0.000978 -0.999999
137.176910400391 -310.661041259766 -1.398451089859 0.000978 0.000978 -0.999999
118.411186218262 -220.064331054688 -1.398446917534 0.000978 0.000978 -0.999999
127.738349914551 -202.844528198242 -1.398446202278 0.000978 0.000978 -0.999999
127.925827026367 -205.098510742188 -1.398446321487 0.000978 0.000978 -0.999999
115.645690917969 -206.657623291016 -1.398446202278 0.000978 0.000978 -0.999999
134.351638793945 -290.997863769531 -1.398450255394 0.000978 0.000978 -0.999999
123.452239990234 -256.596343994141 -1.398448467255 0.000978 0.000978 -0.999999
125.016311645508 -201.656921386719 -1.398446202278 0.000978 0.000978 -0.999999
131.709655761719 -184.936965942383 -1.398445487022 0.000978 0.000978 -0.999999
129.317993164063 -263.638153076172 -1.398448944092 0.000978 0.000978 -0.999999
135.815826416016 -261.813049316406 -1.398448944092 0.000978 0.000978 -0.999999
129.625640869141 -195.380111694336 -1.398445963860 0.000978 0.000978 -0.999999
129.419754028320 -198.384796142578 -1.398445963860 0.000978 0.000978 -0.999999
133.645004272461 -293.761718750000 -1.398450255394 0.000978 0.000978 -0.999999
140.107925415039 -212.364151000977 -1.398446798325 0.000978 0.000978 -0.999999
132.948913574219 -189.341583251953 -1.398445725441 0.000978 0.000978 -0.999999
139.807373046875 -176.504302978516 -1.398445248604 0.000978 0.000978 -0.999999
139.329559326172 -278.458251953125 -1.398449659348 0.000978 0.000978 -0.999999
141.265533447266 -183.811157226563 -1.398445606232 0.000978 0.000978 -0.999999
136.092041015625 -204.426422119141 -1.398446440697 0.000978 0.000978 -0.999999
125.595275878906 -211.031173706055 -1.398446559906 0.000978 0.000978 -0.999999
138.175018310547 -311.720581054688 -1.398451089859 0.000978 0.000978 -0.999999
122.209838867188 -231.271804809570 -1.398447394371 0.000978 0.000978 -0.999999
135.477722167969 -332.933593750000 -1.398452043533 0.000978 0.000978 -0.999999
132.799972534180 -247.159866333008 -1.398448228836 0.000978 0.000978 -0.999999
120.784355163574 -202.480041503906 -1.398446202278 0.000978 0.000978 -0.999999
133.339538574219 -253.865478515625 -1.398448467255 0.000978 0.000978 -0.999999
121.504501342773 -207.054061889648 -1.398446321487 0.000978 0.000978 -0.999999
133.690093994141 -275.593627929688 -1.398449420929 0.000978 0.000978 -0.999999
136.470397949219 -270.416503906250 -1.398449301720 0.000978 0.000978 -0.999999
132.111267089844 -232.124404907227 -1.398447632790 0.000978 0.000978 -0.999999
134.942871093750 -282.809448242188 -1.398449778557 0.000978 0.000978 -0.999999
129.866714477539 -196.299255371094 -1.398445963860 0.000978 0.000978 -0.999999
126.168754577637 -197.276321411133 -1.398445963860 0.000978 0.000978 -0.999999
133.272491455078 -309.227752685547 -1.398450851440 0.000978 0.000978 -0.999999
132.624893188477 -239.576446533203 -1.398447871208 0.000978 0.000978 -0.999999
118.051193237305 -208.463699340820 -1.398446321487 0.000978 0.000978 -0.999999
126.688316345215 -244.739791870117 -1.398448109627 0.000978 0.000978 -0.999999
134.734420776367 -293.658294677734 -1.398450374603 0.000978 0.000978 -0.999999
129.830581665039 -179.411148071289 -1.398445367813 0.000978 0.000978 -0.999999
118.156875610352 -168.983093261719 -1.398445010185 0.000978 0.000978 -0.999999
131.236526489258 -174.858718872070 -1.398445129395 0.000978 0.000978 -0.999999
123.937408447266 -181.972320556641 -1.398445367813 0.000978 0.000978 -0.999999
124.888259887695 -187.021072387695 -1.398445487022 0.000978 0.000978 -0.999999
118.536819458008 -190.844451904297 -1.398445606232 0.000978 0.000978 -0.999999
117.258247375488 -197.069732666016 -1.398445844650 0.000978 0.000978 -0.999999
134.204818725586 -176.433120727539 -1.398445248604 0.000978 0.000978 -0.999999
117.458839416504 -188.049789428711 -1.398445606232 0.000978 0.000978 -0.999999
117.380722045898 -196.482070922852 -1.398445844650 0.000978 0.000978 -0.999999
130.091140747070 -181.107238769531 -1.398445367813 0.000978 0.000978 -0.999999
127.695648193359 -173.786636352539 -1.398445129395 0.000978 0.000978 -0.999999
131.090560913086 -174.703826904297 -1.398445129395 0.000978 0.000978 -0.999999
115.846939086914 -177.966247558594 -1.398445248604 0.000978 0.000978 -0.999999
120.938690185547 -186.634796142578 -1.398445487022 0.000978 0.000978 -0.999999
114.083938598633 -182.583557128906 -1.398445367813 0.000978 0.000978 -0.999999
112.381576538086 -179.794113159180 -1.398445367813 0.000978 0.000978 -0.999999
114.416610717773 -184.640930175781 -1.398445487022 0.000978 0.000978 -0.999999
107.813621520996 -151.106353759766 -1.398444294930 0.000978 0.000978 -0.999999
108.068305969238 -151.429550170898 -1.398444414139 0.000978 0.000978 -0.999999
165.461334228516 -335.148529052734 -1.398452281952 0.000978 0.000978 -0.999999
160.607711791992 -347.328002929688 -1.398452758789 0.000978 0.000978 -0.999999
154.975128173828 -353.075561523438 -1.398452877998 0.000978 0.000978 -0.999999
158.637634277344 -340.755371093750 -1.398452401161 0.000978 0.000978 -0.999999
159.714736938477 -354.018676757813 -1.398452997208 0.000978 0.000978 -0.999999
161.753906250000 -342.243621826172 -1.398452520370 0.000978 0.000978 -0.999999
152.544677734375 -350.879577636719 -1.398452877998 0.000978 0.000978 -0.999999
160.801727294922 -347.675079345703 -1.398452758789 0.000978 0.000978 -0.999999
160.490585327148 -342.410858154297 -1.398452520370 0.000978 0.000978 -0.999999
147.336639404297 -281.706695556641 -1.398449897766 0.000978 0.000978 -0.999999
148.196853637695 -264.387207031250 -1.398449182510 0.000978 0.000978 -0.999999
147.329711914063 -211.283325195313 -1.398446798325 0.000978 0.000978 -0.999999
145.923004150391 -288.788391113281 -1.398450136185 0.000978 0.000978 -0.999999
148.219528198242 -199.772628784180 -1.398446321487 0.000978 0.000978 -0.999999
160.311706542969 -292.779876708984 -1.398450374603 0.000978 0.000978 -0.999999
145.799484252930 -347.489379882813 -1.398452758789 0.000978 0.000978 -0.999999
145.137145996094 -258.685028076172 -1.398448824883 0.000978 0.000978 -0.999999
149.395248413086 -339.764831542969 -1.398452401161 0.000978 0.000978 -0.999999
162.624114990234 -330.476104736328 -1.398451924324 0.000978 0.000978 -0.999999
145.450027465820 -217.632034301758 -1.398447155952 0.000978 0.000978 -0.999999
147.450790405273 -210.090087890625 -1.398446798325 0.000978 0.000978 -0.999999
147.117141723633 -306.706390380859 -1.398450970650 0.000978 0.000978 -0.999999
145.944122314453 -330.800170898438 -1.398451924324 0.000978 0.000978 -0.999999
146.695739746094 -218.247207641602 -1.398447036743 0.000978 0.000978 -0.999999
155.092834472656 -331.796569824219 -1.398452043533 0.000978 0.000978 -0.999999
148.380462646484 -300.316802978516 -1.398450613022 0.000978 0.000978 -0.999999
148.011398315430 -268.402008056641 -1.398449301720 0.000978 0.000978 -0.999999
150.961105346680 -231.166915893555 -1.398447751999 0.000978 0.000978 -0.999999
149.581695556641 -334.248107910156 -1.398452162743 0.000978 0.000978 -0.999999
159.565124511719 -290.043182373047 -1.398450255394 0.000978 0.000978 -0.999999
152.707305908203 -307.932617187500 -1.398450970650 0.000978 0.000978 -0.999999
161.481536865234 -319.829986572266 -1.398451566696 0.000978 0.000978 -0.999999
146.835189819336 -208.545776367188 -1.398446798325 0.000978 0.000978 -0.999999
146.806762695313 -221.470840454102 -1.398447275162 0.000978 0.000978 -0.999999
156.016036987305 -321.249938964844 -1.398451685905 0.000978 0.000978 -0.999999
145.246917724609 -269.221832275391 -1.398449420929 0.000978 0.000978 -0.999999
154.317337036133 -314.995574951172 -1.398451328278 0.000978 0.000978 -0.999999
152.128585815430 -250.958465576172 -1.398448467255 0.000978 0.000978 -0.999999
146.971221923828 -298.900695800781 -1.398450613022 0.000978 0.000978 -0.999999
159.552261352539 -318.074340820313 -1.398451447487 0.000978 0.000978 -0.999999
150.328903198242 -269.871490478516 -1.398449420929 0.000978 0.000978 -0.999999
159.721450805664 -315.169158935547 -1.398451328278 0.000978 0.000978 -0.999999
150.074768066406 -254.092391967773 -1.398448705673 0.000978 0.000978 -0.999999
148.519638061523 -317.790649414063 -1.398451447487 0.000978 0.000978 -0.999999
145.326141357422 -230.744293212891 -1.398447632790 0.000978 0.000978 -0.999999
144.254898071289 -314.808044433594 -1.398451328278 0.000978 0.000978 -0.999999
155.310363769531 -325.488555908203 -1.398451805115 0.000978 0.000978 -0.999999
145.818008422852 -187.419616699219 -1.398445725441 0.000978 0.000978 -0.999999
147.664108276367 -270.711425781250 -1.398449301720 0.000978 0.000978 -0.999999
145.245788574219 -319.507232666016 -1.398451566696 0.000978 0.000978 -0.999999
150.909271240234 -254.583587646484 -1.398448705673 0.000978 0.000978 -0.999999
146.251235961914 -242.048446655273 -1.398448228836 0.000978 0.000978 -0.999999
154.430740356445 -285.490264892578 -1.398450136185 0.000978 0.000978 -0.999999
148.674377441406 -277.516357421875 -1.398449659348 0.000978 0.000978 -0.999999
151.155334472656 -281.183593750000 -1.398449778557 0.000978 0.000978 -0.999999
152.262130737305 -328.696624755859 -1.398451805115 0.000978 0.000978 -0.999999
152.921569824219 -329.338012695313 -1.398451924324 0.000978 0.000978 -0.999999
161.336593627930 -305.197570800781 -1.398450851440 0.000978 0.000978 -0.999999
146.153213500977 -271.016998291016 -1.398449420929 0.000978 0.000978 -0.999999
147.262176513672 -212.784118652344 -1.398446917534 0.000978 0.000978 -0.999999
147.812454223633 -321.793670654297 -1.398451566696 0.000978 0.000978 -0.999999
149.790908813477 -346.065765380859 -1.398452639580 0.000978 0.000978 -0.999999
162.688980102539 -313.021911621094 -1.398451209068 0.000978 0.000978 -0.999999
146.102905273438 -214.876739501953 -1.398447036743 0.000978 0.000978 -0.999999
151.355697631836 -290.251281738281 -1.398450255394 0.000978 0.000978 -0.999999
148.471511840820 -243.257873535156 -1.398448228836 0.000978 0.000978 -0.999999
148.326187133789 -313.498474121094 -1.398451209068 0.000978 0.000978 -0.999999
162.244003295898 -332.723449707031 -1.398452043533 0.000978 0.000978 -0.999999
151.045913696289 -298.303405761719 -1.398450493813 0.000978 0.000978 -0.999999
162.079360961914 -317.735748291016 -1.398451566696 0.000978 0.000978 -0.999999
148.991683959961 -206.987319946289 -1.398446679115 0.000978 0.000978 -0.999999
145.887725830078 -286.889617919922 -1.398450136185 0.000978 0.000978 -0.999999
153.635375976563 -315.233367919922 -1.398451328278 0.000978 0.000978 -0.999999
147.751953125000 -329.494995117188 -1.398451924324 0.000978 0.000978 -0.999999
144.800094604492 -195.532989501953 -1.398446202278 0.000978 0.000978 -0.999999
144.287307739258 -234.559844970703 -1.398447871208 0.000978 0.000978 -0.999999
144.471939086914 -209.527053833008 -1.398446798325 0.000978 0.000978 -0.999999
144.087951660156 -202.879135131836 -1.398446440697 0.000978 0.000978 -0.999999
144.724822998047 -200.950225830078 -1.398446440697 0.000978 0.000978 -0.999999
142.136657714844 -166.503021240234 -1.398444771767 0.000978 0.000978 -0.999999
140.216964721680 -163.981552124023 -1.398444652557 0.000978 0.000978 -0.999999
136.384048461914 -160.545593261719 -1.398444414139 0.000978 0.000978 -0.999999
138.757400512695 -167.654083251953 -1.398444890976 0.000978 0.000978 -0.999999
133.886901855469 -167.812759399414 -1.398444890976 0.000978 0.000978 -0.999999
133.308319091797 -166.161270141602 -1.398444771767 0.000978 0.000978 -0.999999
132.264022827148 -133.075195312500 -1.398443222046 0.000978 0.000978 -0.999999
135.949432373047 -101.292007446289 -1.398441910744 0.000978 0.000978 -0.999999
138.134918212891 -158.645629882813 -1.398444175720 0.000978 0.000978 -0.999999
119.850852966309 -139.654129028320 -1.398443698883 0.000978 0.000978 -0.999999
126.842155456543 -54.020263671875 -1.398440003395 0.000978 0.000978 -0.999999
127.377059936523 -36.901805877686 -1.398439288139 0.000978 0.000978 -0.999999
119.923828125000 -99.358779907227 -1.398442029953 0.000978 0.000978 -0.999999
135.400466918945 -145.800109863281 -1.398443698883 0.000978 0.000978 -0.999999
123.826148986816 -47.623416900635 -1.398439764977 0.000978 0.000978 -0.999999
137.512191772461 -130.216690063477 -1.398443102837 0.000978 0.000978 -0.999999
124.784393310547 -117.441207885742 -1.398442745209 0.000978 0.000978 -0.999999
134.295944213867 -127.733352661133 -1.398442983627 0.000978 0.000978 -0.999999
134.912490844727 -90.991355895996 -1.398441433907 0.000978 0.000978 -0.999999
125.162513732910 -80.351661682129 -1.398441195488 0.000978 0.000978 -0.999999
125.794296264648 -88.021942138672 -1.398441433907 0.000978 0.000978 -0.999999
140.156845092773 -145.792999267578 -1.398443698883 0.000978 0.000978 -0.999999
131.500427246094 -68.682289123535 -1.398440599442 0.000978 0.000978 -0.999999
122.463348388672 -131.248123168945 -1.398443341255 0.000978 0.000978 -0.999999
124.149253845215 -144.432418823242 -1.398443937302 0.000978 0.000978 -0.999999
118.178459167480 -132.181106567383 -1.398443341255 0.000978 0.000978 -0.999999
129.201232910156 -60.331748962402 -1.398440241814 0.000978 0.000978 -0.999999
138.661209106445 -136.047225952148 -1.398443341255 0.000978 0.000978 -0.999999
122.188636779785 -119.608093261719 -1.398442864418 0.000978 0.000978 -0.999999
117.248298645020 -161.782211303711 -1.398444652557 0.000978 0.000978 -0.999999
127.079437255859 -123.493133544922 -1.398442864418 0.000978 0.000978 -0.999999
122.501182556152 -67.299964904785 -1.398440718651 0.000978 0.000978 -0.999999
119.898254394531 -149.022247314453 -1.398444056511 0.000978 0.000978 -0.999999
125.613044738770 -84.330879211426 -1.398441314697 0.000978 0.000978 -0.999999
131.116851806641 -59.409667968750 -1.398440122604 0.000978 0.000978 -0.999999
121.645507812500 -123.341201782227 -1.398443102837 0.000978 0.000978 -0.999999
121.167671203613 -133.816879272461 -1.398443460464 0.000978 0.000978 -0.999999
124.290489196777 -127.386611938477 -1.398443102837 0.000978 0.000978 -0.999999
139.005081176758 -146.718231201172 -1.398443818092 0.000978 0.000978 -0.999999
121.220413208008 -74.594894409180 -1.398440957069 0.000978 0.000978 -0.999999
117.628585815430 -144.109359741211 -1.398443937302 0.000978 0.000978 -0.999999
132.289459228516 -91.361526489258 -1.398441433907 0.000978 0.000978 -0.999999
127.219810485840 -68.719619750977 -1.398440599442 0.000978 0.000978 -0.999999
134.675872802734 -97.966247558594 -1.398441672325 0.000978 0.000978 -0.999999
128.983016967773 -91.342361450195 -1.398441553116 0.000978 0.000978 -0.999999
123.891677856445 -149.242218017578 -1.398444056511 0.000978 0.000978 -0.999999
133.030303955078 -157.494415283203 -1.398444294930 0.000978 0.000978 -0.999999
117.406089782715 -141.312484741211 -1.398443818092 0.000978 0.000978 -0.999999
134.846008300781 -128.088317871094 -1.398442983627 0.000978 0.000978 -0.999999
137.246124267578 -110.937042236328 -1.398442149162 0.000978 0.000978 -0.999999
130.310562133789 -94.528083801270 -1.398441672325 0.000978 0.000978 -0.999999
139.573211669922 -136.212493896484 -1.398443222046 0.000978 0.000978 -0.999999
125.492713928223 -50.198387145996 -1.398439884186 0.000978 0.000978 -0.999999
117.379180908203 -148.266113281250 -1.398444175720 0.000978 0.000978 -0.999999
138.296340942383 -117.578117370605 -1.398442506790 0.000978 0.000978 -0.999999
137.857040405273 -135.729919433594 -1.398443222046 0.000978 0.000978 -0.999999
128.766052246094 -70.836669921875 -1.398440599442 0.000978 0.000978 -0.999999
139.557769775391 -150.262207031250 -1.398443818092 0.000978 0.000978 -0.999999
119.087547302246 -100.235633850098 -1.398442029953 0.000978 0.000978 -0.999999
120.995429992676 -77.868438720703 -1.398441076279 0.000978 0.000978 -0.999999
138.346878051758 -138.606842041016 -1.398443341255 0.000978 0.000978 -0.999999
128.178359985352 -55.911903381348 -1.398440122604 0.000978 0.000978 -0.999999
139.510894775391 -148.199096679688 -1.398443818092 0.000978 0.000978 -0.999999
124.360282897949 -55.524467468262 -1.398440122604 0.000978 0.000978 -0.999999
128.431610107422 -89.305992126465 -1.398441433907 0.000978 0.000978 -0.999999
129.272766113281 -117.187484741211 -1.398442625999 0.000978 0.000978 -0.999999
126.057037353516 -27.630355834961 -1.398438930511 0.000978 0.000978 -0.999999
120.247093200684 -89.545410156250 -1.398441553116 0.000978 0.000978 -0.999999
127.580207824707 -122.101638793945 -1.398442864418 0.000978 0.000978 -0.999999
126.441787719727 -48.609588623047 -1.398439884186 0.000978 0.000978 -0.999999
130.662750244141 -126.964859008789 -1.398442983627 0.000978 0.000978 -0.999999
135.866943359375 -156.313491821289 -1.398444175720 0.000978 0.000978 -0.999999
140.264587402344 -156.159484863281 -1.398444056511 0.000978 0.000978 -0.999999
132.025833129883 -83.990097045898 -1.398441195488 0.000978 0.000978 -0.999999
122.777648925781 -128.780288696289 -1.398443222046 0.000978 0.000978 -0.999999
128.119384765625 -112.746307373047 -1.398442506790 0.000978 0.000978 -0.999999
128.331680297852 -125.079177856445 -1.398442983627 0.000978 0.000978 -0.999999
128.455993652344 -113.205169677734 -1.398442506790 0.000978 0.000978 -0.999999
132.480102539063 -144.250823974609 -1.398443818092 0.000978 0.000978 -0.999999
117.439010620117 -128.838516235352 -1.398443341255 0.000978 0.000978 -0.999999
126.685523986816 -132.591888427734 -1.398443341255 0.000978 0.000978 -0.999999
117.489059448242 11.103993415833 -1.398436903954 0.000978 0.000978 -0.999999
121.153533935547 -14.395532608032 -1.398438334465 0.000978 0.000978 -0.999999
115.810798645020 -36.192878723145 -1.398439049721 0.000978 0.000978 -0.999999
116.800903320313 -129.917037963867 -1.398443341255 0.000978 0.000978 -0.999999
114.751731872559 -89.449295043945 -1.398441314697 0.000978 0.000978 -0.999999
116.901329040527 -128.627365112305 -1.398443341255 0.000978 0.000978 -0.999999
117.635528564453 -95.769660949707 -1.398441791534 0.000978 0.000978 -0.999999
120.758430480957 -62.291599273682 -1.398440361023 0.000978 0.000978 -0.999999
118.018623352051 -25.391841888428 -1.398438692093 0.000978 0.000978 -0.999999
116.535301208496 0.929336547852 -1.398437261581 0.000978 0.000978 -0.999999
116.351150512695 -127.900550842285 -1.398443222046 0.000978 0.000978 -0.999999
121.009140014648 1.716091632843 -1.398437619209 0.000978 0.000978 -0.999999
116.014854431152 -77.570709228516 -1.398440837860 0.000978 0.000978 -0.999999
123.250778198242 -29.788536071777 -1.398439049721 0.000978 0.000978 -0.999999
120.396636962891 -5.486495018005 -1.398437857628 0.000978 0.000978 -0.999999
115.050231933594 -124.488784790039 -1.398442983627 0.000978 0.000978 -0.999999
116.793022155762 -120.684478759766 -1.398442983627 0.000978 0.000978 -0.999999
120.539482116699 -37.275192260742 -1.398439288139 0.000978 0.000978 -0.999999
119.235473632813 -34.224620819092 -1.398439168930 0.000978 0.000978 -0.999999
114.971298217773 -24.967061996460 -1.398438453674 0.000978 0.000978 -0.999999
118.163970947266 -13.462757110596 -1.398438096046 0.000978 0.000978 -0.999999
115.430747985840 -121.580833435059 -1.398442864418 0.000978 0.000978 -0.999999
114.864974975586 3.535984039307 -1.398437142372 0.000978 0.000978 -0.999999
118.558403015137 -48.148036956787 -1.398439764977 0.000978 0.000978 -0.999999
118.418136596680 -103.418708801270 -1.398442149162 0.000978 0.000978 -0.999999
123.859283447266 -6.203103542328 -1.398437976837 0.000978 0.000978 -0.999999
119.205665588379 -47.457973480225 -1.398439764977 0.000978 0.000978 -0.999999
122.205825805664 -43.053112030029 -1.398439645767 0.000978 0.000978 -0.999999
114.623420715332 6.524663925171 -1.398437023163 0.000978 0.000978 -0.999999
116.772186279297 -78.278999328613 -1.398440957069 0.000978 0.000978 -0.999999
117.340309143066 -104.513320922852 -1.398442268372 0.000978 0.000978 -0.999999
121.550056457520 -0.285628318787 -1.398437619209 0.000978 0.000978 -0.999999
120.498420715332 -52.190032958984 -1.398440003395 0.000978 0.000978 -0.999999
115.312477111816 12.953741073608 -1.398436665535 0.000978 0.000978 -0.999999
117.159507751465 27.179958343506 -1.398436069489 0.000978 0.000978 -0.999999
123.498497009277 25.851533889771 -1.398436188698 0.000978 0.000978 -0.999999
116.175598144531 25.613498687744 -1.398436188698 0.000978 0.000978 -0.999999
124.589828491211 17.769477844238 -1.398436665535 0.000978 0.000978 -0.999999
124.767982482910 12.330110549927 -1.398437023163 0.000978 0.000978 -0.999999
116.942832946777 33.471408843994 -1.398435950279 0.000978 0.000978 -0.999999
114.795509338379 37.422710418701 -1.398435950279 0.000978 0.000978 -0.999999
123.644348144531 35.214118957520 -1.398435950279 0.000978 0.000978 -0.999999
122.898841857910 35.031093597412 -1.398435950279 0.000978 0.000978 -0.999999
119.884391784668 41.693912506104 -1.398435950279 0.000978 0.000978 -0.999999
118.311813354492 56.339843750000 -1.398435235023 0.000978 0.000978 -0.999999
124.886543273926 48.640453338623 -1.398435711861 0.000978 0.000978 -0.999999
124.758377075195 53.170375823975 -1.398435473442 0.000978 0.000978 -0.999999
123.315910339355 49.140380859375 -1.398435711861 0.000978 0.000978 -0.999999
123.638938903809 74.609420776367 -1.398434400558 0.000978 0.000978 -0.999999
118.943458557129 56.785682678223 -1.398435235023 0.000978 0.000978 -0.999999
